# 3D point list with one line of data per point:
#   POINT3D_ID, X, Y, Z, R, G, B, ERROR, TRACK[] as (IMAGE_ID, POINT2D_IDX)
# Number of points: 314, mean track length: 5.907692307692308
230 -14.838739389247175 -42.411505946848941 76.621624013268146 150 54 24 1.8978062557417399 257 1494 252 1163 243 1160 247 1323 244 1389 249 1209
1338 -38.652329777914666 5.8797894412848004 89.248793490711662 130 69 42 0.97444241069144533 241 1411 242 1686
229 -19.473349896934529 20.708033100919724 37.009661393924034 254 254 234 0.90202975276273334 240 1341 252 1137 244 1362
1337 -85.053038514830547 2.2090453606139437 54.232018066013943 0 0 0 1.1752063898619713 254 1678 256 1468 257 1629 249 1393
228 -18.525591943416281 4.997583167642289 58.232527419812428 138 51 24 1.5935576763402295 240 1190 252 1088 244 1326 259 1401
1333 -27.337697691973482 -55.685407593616738 58.897550638220501 0 0 0 0.88523214499350789 253 1781 255 1507
224 17.682463851394974 -2.6845398109948602 27.708677003592751 254 121 43 1.2831628418262617 246 1295 252 1071 240 1286 256 1463 259 1390
1332 -28.759598219298489 16.108267393780093 13.832905864808858 123 50 30 1.0006356745175098 254 1601 257 1546 242 1593
223 8.8798206493117782 15.398451455293115 33.270505426123101 227 120 76 1.2007279783895874 240 901 245 849 252 1009 241 1105 246 903 250 928 244 1153 248 1181 259 1206
1330 -51.323089487427147 15.824609589150905 22.753881534411757 114 40 27 0.53600899175565342 245 1148 242 1578 252 952
221 -15.228349885071511 14.35933334680168 38.0193197656587 211 110 67 1.5481682723286063 240 1080 252 972 259 1305
1329 -86.370880908523077 16.099684894924746 93.065156393005125 90 40 28 0.60505341163627568 255 1341 242 1577
220 14.35775217901246 2.6694481275044297 34.488542502459694 254 136 70 1.0108534305614612 240 1034 246 1055 252 930 250 823 243 932
1328 -46.994670788917389 10.283052460257107 75.575639245328929 133 61 40 1.9347361189405539 248 1388 259 1277 242 1576 257 1520
219 6.7086972510397977 -11.958264660079518 46.973948373045907 225 93 49 1.3820282381826616 240 759 252 902 248 838 259 441
218 19.396470940188003 -8.550073779156806 27.428310105470239 254 139 82 0.698028720221336 240 1163 243 1044
217 -0.96422525676009729 19.441431640401429 26.114848190697117 197 86 46 0.70249508716787579 246 975 252 862 250 975 245 908
1325 16.788334523100406 1.3364525900548567 38.294173968623987 0 0 0 0.53236506615603685 250 1329 256 1471
216 0.12723573935017374 15.993696629467177 26.988700218577215 254 254 227 1.2158430197202816 246 959 252 844 250 960
1324 18.201612247493866 -1.6100114649406427 5.9903049610226828 254 124 63 1.7012361285068791 253 1552 242 1559
215 0.12072634629821685 16.216668462982142 27.295667375313251 254 254 227 1.1875142549493263 245 1063 246 958 250 959 252 843
1323 -25.897547880299037 -41.513219062237283 105.68228456676468 97 26 9 2.0087883324101492 246 714 242 1556
214 -17.998417376515903 21.033031461422006 36.639242099334162 180 76 44 1.0786134302166897 240 927 245 569 252 818 246 593 250 305
1322 -37.51842469756312 20.437228044452286 19.226558102197487 0 0 0 1.7037064409631466 249 1161 255 1240 256 1244
213 -14.961493110072833 17.279904341215605 40.188168352932593 166 123 83 1.1333706775415084 240 586 241 613 246 879 250 898 252 763 245 1023 244 653 248 281 259 676
1321 -50.692126594054358 10.800685389185938 25.088257874040448 98 32 19 3.899960835717688 255 1346 242 1374
212 -15.141480166897102 17.508217019753182 40.737810063028142 166 123 83 0.81228436411548255 241 612 246 878 250 897 252 762 240 585 245 1022
1319 -44.444653414194406 -26.01776058979684 16.173101189114107 86 17 5 2.7171914844031511 241 1279 242 1337
210 -16.268574681940894 14.988284536419826 37.328925805994707 254 254 228 0.3752730803850805 241 890 252 745 240 861
1317 -36.671569152836632 2.798925557312407 85.201734894323593 254 228 203 1.1886256699745992 241 826 242 1053 240 796 246 773 250 474
208 0.62490583179061465 15.054205498218943 26.888303863794615 254 212 160 1.0856347383111964 245 894 250 952 252 557 246 948
1316 6.7995463181894733 -12.045920867695994 45.895290684518102 192 74 39 1.3112944361521279 249 796 242 1020 256 896
207 -17.160320943120372 19.435836775117917 35.217647284462387 224 141 111 0.63779802444970302 241 660 252 522 246 580 250 651 240 647
1315 -1.3709535734315517 -13.737448908406886 22.18423239872536 213 91 52 2.4847743087354219 253 1071 242 999
206 3.7994499722167454 14.414790271223703 30.254031938585111 254 242 196 0.78031786378591206 241 658 246 578 250 649 252 519 240 644
1313 -32.95188912857639 18.616132706558076 15.082108925961945 243 173 150 0.1632714706705379 254 851 242 780
204 -20.515082593410082 20.630023994886013 30.583763453172779 170 72 41 0.14419615980638956 241 688 245 285 252 227
203 15.840910297371643 14.107242737087722 18.93794418497551 241 114 70 1.482589731786798 241 1604 246 1589 245 1517 240 1562 250 1623 244 1545 248 1610 259 1669
1311 19.338501849835168 1.1067317139542823 22.263191485719837 214 91 49 1.655406180092702 254 1957 255 1688 240 1509 246 1531 250 1570 245 1458 252 1408 247 1468 249 1625 243 1398 256 1684 258 1815 257 1905 242 1955 251 2098
202 13.644112080516722 8.1311918869123119 30.547992956099193 254 125 70 2.1958599249859887 241 1592 246 1579 250 1613 245 1512 252 1452 247 1515 249 1680 243 1453 256 1729
743 0.96891041700859193 18.220005156916105 29.879135286086349 219 95 56 0.79002951920530851 240 947 244 1170 248 1200 241 958 246 962 250 963
1310 10.262488943058809 -1.7085555545052393 42.010248745372792 170 66 40 1.7919678229407776 254 1757 253 1802 257 1706 258 1646 240 1453 241 1408 244 1477 246 1480 248 1532 250 1521 259 1562 245 1333 245 1411 247 1411 249 1579 243 1271 243 1354 249 1495 256 1571 242 1761
201 0.70937750076060957 9.0110863966010548 37.508740608694531 254 122 65 1.4718732359358948 240 1550 241 1591 246 1578 250 1612 245 1509 252 1451 247 1514 249 1678 256 1727 244 1572 248 1640 259 1660 255 1691 243 1451
742 -34.998183129779072 22.420934233837354 17.645722399433136 185 108 87 1.2070347295557975 240 932 241 947 244 1016 246 934 248 1193 245 887 250 947 252 548 259 1347
1309 -46.012940722052328 -65.387882882234564 111.23673585511564 145 63 41 2.0933002780982921 255 1588 254 1825 253 1853 252 1331 241 1468 257 1696 250 1492 246 1455 240 1435 245 1395 247 1322 249 1556 243 1252 244 1459 259 1536 258 1637 254 1737 253 1790 242 1748
200 -0.402048486810207 7.9685974077653405 38.764513766415476 235 89 43 1.8357678702127667 240 1549 241 1590 246 1577 250 1611 245 1508 252 1448 247 1513 249 1677 243 1449 256 1725 248 1639 244 1571 259 1659
741 -18.398197329984985 20.46580291757838 38.705358586162525 182 90 62 0.47111504237078544 241 1111 244 1156 248 1182 240 1114 259 1208
199 14.078932844683976 4.5982286215991746 34.642855489562429 254 160 88 0.81864844882648147 241 1587 246 1573 250 1607 245 1505 252 1413 247 1509 249 1674 243 1446 256 1723 244 1569 248 1636 259 1656
740 -16.131208608260966 19.356206663262846 38.956768457052611 168 90 56 0.6764515543411469 240 1113 241 1104 244 1152 248 1180 245 1039 246 1117 250 1123 252 1008 259 1201
1306 1.0905366957130409 -6.7087476710147982 57.834555146133098 217 102 63 1.4354303276479143 254 1951 255 1681 257 1901 258 1811 253 1958 242 1951
197 12.78407132812549 0.72258612592383809 39.351685565923603 254 122 68 1.1213059959966556 240 1542 241 1581 246 1568 250 1603 245 1501 252 1443 247 1506 249 1669 243 1442 256 1722 244 1562 248 1630 259 1649 255 1687
738 -35.797846364774571 18.30544944293452 20.35908999367593 128 51 34 1.9026959432853734 250 1113 248 1174 241 1098 259 1194 244 1144
1305 10.723849600893779 1.8331908385339082 44.643280671091603 254 104 61 1.5987787493195571 254 1840 255 1652
196 15.179929537710921 -9.3148273814313747 41.700720342498926 254 140 76 1.5702992425885725 240 1538 241 1578 246 1564 250 1599 245 1495 252 1437 247 1500 243 1435 256 1717 255 1679 249 1661
194 -1.7452082275399319 11.262419689850324 41.084707130838439 223 79 35 0.89904098672286559 240 1513 241 1548 246 1537 250 1573 245 1464 244 1575 248 1602 259 1627
735 5.796582293088254 11.927289767306062 35.211917812848604 254 254 225 1.1037479276054811 244 1119 246 1083 248 1145 250 1093
193 -1.6927218037141589 10.44492177083136 38.615531479164723 223 79 35 1.4274600271991265 240 1512 241 1547 246 1536 250 1572 245 1463 252 1415 247 1475 249 1633 256 1692 244 1574 252 1453 248 1601 259 1626 255 1656
734 -25.152992021226016 14.564131950511452 54.486638011598821 120 45 24 1.4380673126376429 250 1069 248 1125 259 1290
1301 5.8565784311605711 -10.470005910442401 35.996942810987257 221 104 63 1.9654331005071177 254 1742 255 1594
192 0.31468927907070132 6.3870496577709046 40.299153930360653 236 90 47 1.377237384966512 240 1548 241 1589 246 1575 250 1609 245 1462 252 1414 247 1511 249 1630 243 1401 256 1689 248 1638 259 1658
1300 -15.190788152135392 3.8988053209039242 65.056591782857254 129 47 21 1.7902805280690524 253 1966 258 1776 254 1897 257 1798
191 -12.705071010061586 9.7489112672016116 40.706443390776201 232 108 67 1.8350483735526062 240 1511 241 1546 246 1535 250 1531 245 1417 252 1361 247 1420 249 1588 243 1364 256 1653 244 1485 248 1537 259 1624 255 1655
732 -47.110541775924908 14.344424962009068 64.545787816467481 155 72 50 1.1679201253123892 240 1047 241 1206 243 700 246 1060 250 1059 252 700 256 1166 248 1114 247 754 249 849 259 1133 255 1345
1299 19.580696759692945 0.93904240384168014 13.126678060956191 254 122 61 0.50170184293306064 253 1922 258 1775 257 1856 242 1896
190 16.617321804316184 2.0951665162361817 34.917210103373442 254 166 101 1.4070171401185554 240 1507 241 1499 246 1484 250 1527 245 1415 252 1409 247 1469 249 1584 243 1360 256 1651 244 1535 248 1533 259 1568 255 1610 253 1879 254 1838 257 1858 251 2019
1298 19.60737768693609 0.15818618573559426 12.106558174750022 254 155 87 1.6346320718923124 253 1874 258 1711 242 1833 257 1789 251 2014
189 22.646728899640895 0.46898322508592599 15.391823715707496 247 105 48 1.4992933794304495 246 1483 250 1525 245 1414 240 1458 241 1497
730 4.1200196850077768 -14.344188401325283 57.470048239322658 233 104 70 0.071855824905742105 256 1137 248 1074
188 20.166306062018126 -0.011150539571897298 17.893174512705531 254 120 68 1.6600320711307888 246 1482 250 1523 245 1413 252 1355 247 1415 249 1500 243 1357 256 1648 254 1833 240 1457 241 1496
729 2.3423425311244044 16.940805056708427 28.430790954095034 254 254 222 2.101010818592183 249 991 248 1034 259 774
1296 21.741144842537615 1.5914997537849438 13.139349743855195 0 0 0 0.30559372056511758 253 1809 258 1649
187 10.72961300142782 -4.122910574400966 45.041825966738806 241 90 56 1.5589464144698713 240 1381 246 1395 245 1330 249 1490 256 1565 244 1403
728 1.0768061403016109 17.597373357587127 29.771316682680734 254 254 222 0.34128434989470141 240 945 244 1029 248 1032
1295 21.741144842537615 1.5914997537849438 13.139349743855195 0 0 0 0.30559372056511758 253 1808 258 1648
186 10.771666941896417 -4.1307035258440195 45.325285289378435 241 90 56 1.5106125859562853 240 1380 241 1405 246 1394 250 1516 245 1329 249 1489 256 1564 244 1402
727 -36.896414837327328 23.169665639189088 19.370188948615819 102 25 5 0.78884355080075597 246 603 248 1019 240 661 244 1012 250 946 259 1039
726 7.5024864511721923 14.821298862266737 29.981533263141998 224 98 60 0.72444633503873401 240 920 248 1015 241 664 259 1032
85 -50.167005130596685 7.1240203412746625 91.047677677503472 170 85 57 1.9149282193661379 257 1070 245 730
626 8.0620508704245974 14.553113776024096 30.63105084548906 254 254 225 0.72800494218372369 240 1115 241 1112 250 1265 244 1157
84 -74.553931195285855 -7.7187705872361398 124.47237115932893 93 36 19 1.5738309719958314 257 1058 245 708 249 813 256 568 243 147 244 505 246 412 248 501 240 451 252 352 241 158 250 148 259 877 255 895 253 695
625 6.0588189390119052 12.118930139030914 32.724466989144211 254 254 215 0.78586076238228197 240 1089 241 1083 244 1125 246 866 250 884 248 1154 259 1185
314 -19.611538781576769 20.858892905028522 37.181083503753129 254 254 229 0.5420849940803506 241 1362 245 1289 246 1348 250 1383 247 1188 248 1426 259 1442
57 -71.845645494850132 -8.6133737264870547 121.70076040266136 174 119 103 0.99116151249995676 241 811 250 801 257 673 246 745 245 402 252 658 247 724 249 482 243 670 256 565 244 842 240 449 248 853 259 478 255 562 258 616
598 16.945457310801988 10.239473697935685 18.554907834997241 158 71 43 1.2891815689019637 240 1415 241 1440 245 1365 250 1470 252 1308 256 1600 244 1437 248 1420 259 1438
1422 -38.529426175730755 9.3163902536383301 91.256371041204517 92 35 18 1.3597702512277361 249 1672 251 2158
313 20.143149369610594 4.9042030668712115 14.790019166829438 217 78 37 2.0493218824027397 250 1352 247 1138 249 1408 245 1250 243 1191 256 1587
56 -71.930124761620249 -10.086024960335095 121.67484053457154 85 29 15 1.8433366936740099 257 670 246 743 245 704 249 810 247 723 252 655 241 809 243 667 256 914 259 873 255 561 258 612
597 8.5463295108891515 5.9057272147952258 16.461843091533193 254 254 238 0.098475201747433599 243 1369 256 1655
183 -2.731420283144248 21.175152213370001 28.4019189377461 254 254 239 1.1860173348421188 240 1355 241 1373 246 1362 250 1395 245 1297 252 1317 247 1301 244 1372 248 1439
724 -14.307913647401993 19.55723657415049 42.993604603504636 181 83 49 0.63409733462689344 246 891 248 986 241 911 240 885
51 -11.844272736558421 -26.48591980892073 72.550244716266803 142 54 30 2.0909121429438788 257 1851 245 1446 252 1400 247 1399 249 1567 243 1386 256 1678 250 1560 255 1641 254 1827 253 1862
592 23.007848868983647 0.64372387483698013 22.285511630114542 254 171 101 0.34671069235026186 247 1463 256 1650 253 1876
1287 14.466577886602295 -4.8318283270608751 14.385159887781008 254 156 93 0.88395695634608806 253 1955 254 1947 257 1899 242 1945
178 17.301121196628191 10.049150150767044 21.581684667473528 234 87 49 1.6113989717781623 241 1346 245 1270 246 1337 252 1118
719 -39.870441039574153 14.028023283245163 73.065180801839574 155 82 56 2.1446080327281636 247 753 252 698 248 899 256 941 253 1150 258 653
1157 -33.619770776181902 -76.431221683715165 61.304405815321573 241 95 45 1.7732077926343877 249 1198 257 1487 254 1368 256 1435
589 15.87714809370134 13.71525455224668 17.103029287636684 238 94 54 1.5427438025499407 247 1439 249 1645 256 1702
1284 5.9441280550372877 14.590187472061547 27.853704648791542 254 254 236 0.24427768953134846 257 1730 258 1585 254 1850
175 12.904196884836505 1.7529726923198576 37.825650043898165 254 147 84 0.80677983507472673 240 1297 241 1309 245 1239 252 1186 247 1241 256 1474 244 1324 259 1399
716 -0.18167160303019689 21.555636114126568 29.950229228067744 165 77 45 0.7943778869073963 240 961 244 759 248 780 259 798
1412 19.752146261317865 1.2385094660859699 10.633947159587912 254 137 71 0.99260098817814657 254 1755 257 1705 251 2017 253 1807
303 -30.480644269877356 31.301818165431797 24.928288209158662 121 34 16 1.5507704486029097 241 1150 245 1074 252 1039 247 1079 246 978 243 1023
46 -8.7295393385739377 -35.651540221769174 75.707423320576353 142 50 23 2.1444292856555593 241 1472 250 1416 246 1380 253 1547 242 1750
1411 19.779172485478156 0.66242885841562449 15.80578556360104 254 172 98 0.69753340373295769 257 1794 251 2016
302 8.0277603399644732 14.587662018868544 29.727607548523327 231 111 78 0.98923106044311482 250 1131 252 1022 247 1052 241 937 246 913 240 915 244 1004
45 -37.540946450101252 -53.771988198221642 106.47883233345195 116 40 19 1.8349123055401266 257 1698 250 1415 246 1379 247 1324 249 1371 243 1253 244 1460 254 1738 253 1792 242 1751 259 1375
586 -11.471674290774239 -8.7356175367708229 68.248451952599382 169 78 50 1.5139192859089303 241 1486 256 1642 244 1525 259 1615
172 0.0065661608779268663 18.34861047968273 25.981370048674044 225 115 71 0.47605974797415646 241 1263 246 1359 250 1393 245 1195 252 1150
713 -37.038666049629335 24.062027713736253 19.49430043153335 110 31 11 1.0427591311827582 250 683 248 733 245 585 246 293 241 325 243 570
301 2.8385717439533584 13.387481739084356 28.220140529030285 254 254 220 0.43300995908273476 245 1048 252 1020 247 1050 250 1269 246 1131 243 820
171 19.77545238457801 -8.4927984413048172 30.515639341985793 254 113 64 1.5954847204440501 241 1180 246 1026 250 1179 245 1106 247 1104 249 1222 243 1045
712 -25.130440167475356 24.733379662416233 36.97507341077435 151 73 45 0.6214197540693267 244 715 250 676 248 731 241 321 245 579 240 662 259 743
39 -68.298829144654832 -6.4371614250037208 116.57039758191996 133 81 62 1.2479414070191359 257 675 250 454 240 452 241 159 246 751 245 405 247 149 249 486 256 239 244 506 248 503 259 168 255 248 253 303 253 697 258 620
580 19.929342311633004 9.5551359723594498 32.979387232117695 254 126 70 2.1479325473126778 252 1292 256 1591 255 1543
707 -17.726899053982176 18.77346242030692 40.2177967317268 203 101 62 1.2597949969843694 246 890 248 669 241 910 245 818 250 909
1402 18.094772176611034 -4.1881667084156149 16.312991042526896 254 112 62 0.60610868215696212 254 1665 251 1765
293 -61.605378030333071 -64.991862183686322 84.578192238542925 159 72 48 2.010488940332146 257 1019 247 930 255 1136 254 1376
36 0.28446489765755273 -6.2220664984115137 53.534817093516899 246 118 68 0.98143093485445654 250 1602 245 1499 252 1440 247 1503 249 1665 243 1438 256 1719 241 1580
577 6.7899345675862381 -4.6070863775023545 50.622459458360609 251 130 80 0.65105018502424639 240 1379 256 1567 244 1307
704 9.1892767393215582 14.91284844481801 31.072954839605302 177 120 76 0.43106869337339049 240 278 244 687 248 323 241 78 259 314
292 6.6183086494244012 13.769672728103968 28.053261316519592 254 240 199 0.36022493016378965 245 1051 252 814 247 868 243 832
35 -8.3169278951713288 -17.708205756549127 73.080677493649006 141 55 34 1.0024226012237398 241 1576 250 1597 246 1562 240 1536 245 1493 252 1435 247 1498 249 1659 243 1433 256 1715 248 1625
162 16.68744617208883 1.2736935811430716 36.552922695997133 254 124 60 1.1967553441412986 240 1025 245 728 247 740 249 1079 246 1051
703 8.9793713273822497 14.560269693444468 30.485918873022314 177 120 76 0.4019114781881058 240 277 244 686 248 322 259 313
291 7.4227709284237564 13.928210522435126 29.783358683313516 240 119 72 1.9379614573852761 240 908 241 651 245 851 247 851 250 931 246 572
34 -23.376499463318908 -42.984307405037271 90.470283975453427 175 76 43 1.079711186449011 241 1572 250 1594 246 1558 240 1532 245 1489 252 1432 247 1495 249 1656 243 1429 256 1712 244 1556 248 1622 259 1640 255 1676 258 1807 254 1946 253 1953
702 -37.0326011112478 16.649331261060382 15.938624221473329 182 114 95 0.62919593769170767 244 306 246 58 248 275 240 584
1201 13.184638182949781 -3.4836305034903989 35.704234153691715 252 97 51 1.4546811726613369 249 1384 256 1461 254 1750
92 20.740658234938024 0.98355722159280456 18.463934418695047 244 107 52 1.2348418251762125 241 1310 246 1302 250 1209 245 1126 252 1187 247 1239 249 1504 243 1063 256 1472 254 1392 240 1189
633 -25.418228240292787 8.8388599980203519 70.200240594844189 166 83 55 2.1052211478125322 240 1194 241 1042 245 1129 246 1206 244 1216 248 1263 251 1422 242 1574
1399 20.05767853033154 3.6630523041957859 12.307706886878869 254 167 93 2.5099584951862219 254 1400 251 1402
290 -14.025916305378122 12.595214204856534 35.442833490498614 254 254 227 1.5244475002504265 241 876 247 787 240 849
33 -42.502936092181137 -66.494010428729297 119.37501548484612 182 84 51 1.9011565875765546 241 1570 257 1847 250 1555 246 1556 240 1530 245 1487 252 1431 247 1492 243 1427 244 1554 248 1619 259 1638 258 1767 254 1885
574 -25.678583068352022 22.104388977878841 34.319988770648351 164 72 49 2.1613931960521362 241 1366 243 1309 249 1536 252 1238 250 1476 248 1494
160 -3.3504301585479919 21.693663451683687 28.420055022017291 254 205 164 1.0567001014107567 240 708 245 625 248 795
701 -37.119218237943898 16.72310352826808 17.033566438358505 187 116 95 0.58643036024990736 246 235 248 274 259 659
289 16.347031933339856 1.2492413096468473 35.807181547919541 254 128 65 1.2964457449872402 245 727 246 1050 247 739 249 1078
32 -51.514106460516487 -67.88219196574542 103.97952947693561 179 91 59 1.6141637935637378 241 1568 257 1897 250 1591 246 1555 240 1528 245 1485 252 1430 247 1491 249 1654 243 1426 256 1711 258 1805 254 1945 255 1675 251 2084
1268 14.503356937622097 10.511702357640569 13.949596760779725 254 129 73 0.87478002425095847 258 1785 254 1905
159 -3.3912630758170308 22.063783077847553 28.845067063983603 254 205 164 0.72500787603467198 240 707 250 351 245 624 246 320 244 772 248 794 259 807
700 -64.440459265609832 13.486173903321843 40.059182628067248 160 98 81 0.66342343913801172 240 183 247 451 250 177 248 200 245 442 252 385 243 427 244 231 249 532 256 616 255 286
31 -60.041688298091572 -69.392924869912491 95.035273348924633 175 87 54 1.496051664075839 241 1567 257 1896 250 1590 246 1554 240 1527 245 1484 252 1429 247 1490 249 1653 243 1425 256 1672 244 1551 248 1615 259 1635 258 1804 254 1944 253 1911 255 1674 251 2083
1267 21.178995410689897 12.244101271839808 15.549082098458731 254 128 82 1.6894859823219854 257 1868 258 1727 254 1846 242 1847
158 -3.4234792330006893 21.883939636196612 29.353760736782181 192 88 46 1.1265676146783477 240 699 250 724 245 617 241 970 246 651 244 766
1396 19.196134169541367 -2.2600318114261211 15.611139676341253 254 133 70 1.2098469711524871 241 1187 251 1390 246 1037 250 1192
287 15.665997994106601 -12.357437060530373 45.275394027340113 254 136 83 1.0770973910441113 246 1022 250 781 247 711 243 899 255 1160
30 -42.179642329932484 -58.783994599391953 66.328463112477749 198 97 61 1.7872666690133705 241 1565 257 1843 250 1589 246 1553 240 1525 245 1483 252 1389 247 1448 243 1381 244 1549 248 1614 259 1634 254 1881 251 2081
1266 13.361141866173028 10.14142508651002 14.104674221242483 254 254 237 0.80189763424301697 257 1807 258 1725 254 1845
698 -57.141673784484929 21.232828790848096 59.071723034009189 123 62 41 1.5774211595749745 241 1323 243 1285 250 1450 244 1339 245 1359 247 1355 249 1514 252 1205 256 1493 248 1405 259 1420 255 1544 253 1726 258 1658 242 1699
1379 12.863455605481793 13.646726768157301 30.999706176644359 254 146 85 1.2720894550955721 254 1690 242 1696
270 -8.9481575551948733 3.9696801086561671 45.27632064939236 240 122 72 1.1081857830746322 240 1510 241 1545 245 1461 246 1533 250 1571 252 1412 247 1471 249 1628 243 1400 244 1536 248 1598 259 1623
13 -95.408404064376811 -73.506603721555919 94.977869182362241 117 50 35 1.445800705939942 241 1466 257 1772 250 1491 246 1454 240 1433 245 1394 252 1330 247 1388 249 1554 243 1330 256 1622 244 1457 248 1510 255 1587 258 1697 259 1533
140 0.74869854530112279 18.100592529109367 25.567486727534135 254 242 194 0.97117655229679001 240 1354 241 1371 246 1360 250 1394 245 1376 252 1316 247 1381
681 -22.50648761953849 23.870769332726802 35.02500624904097 177 76 44 0.64492598582243921 240 1478 241 1518 245 1427 246 1506 250 1546 244 1500 259 1591
328 1.9858331357241694 15.22825963944476 27.593925307364334 254 254 235 1.0648272312295819 245 1190 252 1241 247 1294 250 1276 246 1139 241 1127 249 1449 243 1007 240 939
71 -72.407983294580092 -67.594870903744749 78.348446760927303 147 65 42 1.3878546440053434 246 1451 257 1768 240 1429 245 1388 252 1326 248 1506 259 1528 258 1692 253 1846
612 18.433788827444534 -4.058110045382012 16.989558342635164 254 141 84 1.2805963016082096 241 455 244 840 248 1083 259 1255
12 -88.049768272631553 -76.414833240704482 95.256500548762986 96 28 15 1.5684708158475325 241 1464 257 1771 240 1431 245 1393 252 1329 244 1455 259 1531 255 1584 258 1696
139 10.647201987110581 13.593011063162262 28.706749062573344 254 254 234 1.6499278994032587 241 1358 250 1471 245 1369 240 1338 244 1266 246 1252 259 1342
680 -12.997319692208469 16.280091630624259 37.09687185752869 213 106 69 0.82866279150682565 247 1365 244 1495 243 1298 248 1551 259 1584
11 -69.710362441754114 -69.919073798019497 85.645197822355726 152 73 44 1.2578155725815288 241 1461 257 1769 250 1488 246 1452 240 1430 245 1389 252 1327 247 1386 249 1552 243 1328 256 1621 244 1453 248 1507 259 1529 258 1693 254 1820 253 1848 255 1583
1247 15.640505461703237 -0.28416594754851043 31.614453883933486 254 110 64 0.56929137076372593 253 1961 254 1956
138 18.814950151620984 6.5034001729390702 20.680771570685994 254 130 72 0.68483324616263319 240 1402 241 1424 246 1418 250 1452 245 1360 252 1291 244 1422 248 1481 259 1424
679 7.0344446560494358 10.838509049029103 32.514445277623835 253 109 52 0.73851266292913065 240 1467 241 1508 246 1493 250 1537 244 1491
1376 -39.990133378444952 16.314173858535256 25.936904114987549 106 40 29 1.5314221885426802 257 1361 242 1391 254 1182
267 -7.4213940823767759 -1.9093172819809585 52.91025036339601 219 98 56 1.3325463215436595 240 1503 241 1492 245 1410 246 1479 250 1520 252 1403 247 1412 249 1580 243 1394 256 1681 244 1476 248 1591 259 1560
10 -59.626503813101564 -65.608995900984567 75.434558042694476 129 44 20 1.6920338865642091 241 1460 257 1767 250 1486 246 1450 240 1428 245 1386 252 1324 249 1551 243 1326 256 1619 248 1504 259 1526
551 -35.616019555936575 23.606386165475769 18.306276896028397 133 65 49 0.85801317027753476 241 692 243 278 248 741
137 17.762264373542198 7.3775274934089037 27.626733126306711 254 139 79 1.4116015313835231 240 1400 241 1423 246 1417 250 1451 245 1358 252 1290 247 1421 252 1362 249 1589 243 1365 256 1588 256 1652 248 1406 255 1612
678 -16.432246291169939 -5.6759659306828079 69.454847129278761 181 84 54 1.4680396437751284 249 1575 244 1475 248 1588
1375 -49.236934867675515 5.7949722729291961 26.61658279117524 80 15 4 1.1794994250655619 257 1072 258 1295 242 1063
266 -25.226345845995162 -51.248696748644399 80.618779026268498 137 50 23 1.6432818416496024 245 1437 257 1770 252 1392 247 1450 249 1612 258 1695 254 1821 255 1636 242 1818
9 -47.894760395738366 -50.135449791961101 50.241277609960676 169 78 50 1.8728174144248539 241 1459 257 1765 250 1485 246 1449 240 1427 245 1385 247 1385 244 1505 248 1566 259 1525 258 1691
550 -35.441004528285333 23.498071469365382 18.291381707512752 133 65 49 0.83435901030871118 241 691 243 277 245 590 244 722 248 740 259 338
136 9.7455787447141944 4.1631688074445972 37.346785982694819 254 155 91 0.69897386872844836 240 1395 241 1418 246 1308 250 1443 245 1353 252 1197 247 1245 249 1402 256 1478 244 1332
1117 -21.188244821890983 -12.184173393416101 82.959588587162202 0 0 0 1.6803612544588709 259 1614 255 1647
135 16.028995107693625 0.7826229761972302 36.710714668620035 254 150 87 1.6308678256927687 240 1294 241 1302 246 1299 245 1340 252 1180 247 1234 249 1391 256 1576 244 1322
676 16.655029536634594 -7.7992620760915239 22.256453381071275 254 109 59 1.286097305937854 240 1443 241 1478 246 1468 250 1505 244 1469 248 1523 259 1544
1373 16.709568771820305 20.462677966219658 15.174190662567531 237 88 49 1.6643961643053635 254 1975 257 1929 242 1976 258 1833
264 -2.8789255753227283 12.212647278704356 34.110404234889231 228 90 47 1.6080224038172946 240 1469 250 1540 241 1512 246 1497 249 1594 256 1657 244 1493
1116 -6.3961265760015777 -15.179428271315063 63.138095614926748 118 42 23 1.6098449429395281 255 1678 258 1809 253 1956 254 1948 257 1900 242 1948
7 -38.162123387880243 2.1561361634882257 74.765952726253701 155 76 43 0.87466158460248922 241 1410 250 1439 246 1403 240 1389 245 1339 252 1356 247 1345 244 1409 248 1472 259 1565 253 1812 251 1782
548 3.436641753165171 16.186504800349027 30.822623963943709 253 118 66 1.7216095126452498 241 1558 246 1545 250 1582 243 1414 245 1477 244 1584 248 1649 259 1668
134 17.212458023746862 -0.32876001002818755 32.509802938742439 254 110 60 0.9988480441518468 240 1388 246 1400 250 1437 245 1338 252 1277 247 1342 249 1498 244 1410 251 1616
675 15.742870256252546 -9.0147073414627261 24.098809503601224 254 155 86 0.62838549776994668 240 1440 241 1395 246 1466 250 1503 244 1467 248 1522 259 1467 259 1542
1372 -5.0284788288341984 18.751903325985374 26.860914941177917 254 135 83 1.2724646834325406 254 1917 242 1970
263 -10.184727355796769 12.768040211824266 35.906602578219427 217 106 69 1.4064141188402848 245 1421 246 1495 250 1539 252 1367 241 1510 240 1468 247 1426 249 1520 243 1367
547 3.3845039928040763 15.909172486354114 30.340597955248334 253 118 66 1.884474426884946 241 1557 246 1544 250 1581 243 1413 245 1476 248 1648
133 17.530007468717926 -5.3975365565750169 27.480452173353925 254 153 90 1.4061385173791017 240 1377 241 1403 246 1391 250 1314 245 1322 252 1271 247 1333 244 1398 259 1385 255 1519 248 1463 256 1557 243 1264
674 -26.2739764286585 -46.616083149397298 68.201240251260089 142 55 27 1.4158720300393246 241 1463 246 1453 249 1470 250 1489 244 1454 248 1509 259 1530
1370 10.166143565709591 13.162570544541326 33.879719230776693 254 150 86 0.31510310600030189 254 1966 257 1920 242 1965
261 -9.2637152733796579 -1.2592816978752688 51.724216594884275 154 56 28 0.67836352306319325 240 1454 241 1493 245 1334 246 1398 250 1436 247 1341 249 1496 256 1573 244 1478 248 1531 259 1561
4 -5.1147917762008195 -12.30970492046638 61.917711736361348 197 93 64 1.5256073644534827 241 1399 250 1425 246 1387 240 1373 245 1404 247 1330 249 1484 243 1260 256 1556 244 1395 259 1471 251 1772
545 9.6335045349055548 1.9043963930358443 40.332426662683645 254 117 74 1.8779134385249814 247 1466 249 1626 252 1406 256 1685 248 1595 240 1505 241 1543 245 1459 246 1529 250 1568 253 1926 244 1533 258 1718 257 1859
131 7.3874242071539307 -23.816490787345945 20.858092750936638 254 116 60 1.5031751303660192 240 1359 241 1377 246 1365 250 1399 244 1377 248 1442 259 1456
672 -8.5860040804547975 19.010009175076696 32.500017747936106 213 104 65 2.1699538641375922 243 1314 245 1374 247 1380 252 1313 244 1441 249 1605 247 1436 248 1497 259 1449
260 18.054127741712144 -1.9235373739172952 18.187547251076143 254 150 90 1.9888808817135977 240 1384 241 1407 245 1408 246 1396 250 1433 252 1352 245 1331 247 1337 249 1576 243 1353 256 1643 255 1527 255 1602 253 1796 254 1747 257 1783 251 1906
544 21.65857716780393 0.51602720253046364 15.080355470742321 254 112 51 1.634596079629117 247 1416 249 1624 243 1395 252 1357 256 1683 255 1650 254 1894
130 7.3874242071539316 -23.816490787345948 20.858092750936638 254 116 60 1.5031751303659708 240 1358 241 1376 246 1364 250 1398 244 1376 248 1441 259 1455
1368 16.758170116379645 24.646969747114166 16.866110335648688 219 79 39 0.00019624834802492547 254 1871 242 1929
259 13.953138877519986 -5.2442949211158281 38.29108668667488 254 143 79 1.4404993421340069 241 1539 245 1452 250 1512 252 1351 247 1406 249 1574 243 1351 244 1526 248 1586 259 1617
2 1.7944989446997655 -10.17411250421034 56.188712994313853 240 108 65 1.2729351978376764 241 1285 250 1313 246 1291 240 1278 245 1223 252 1172 247 1227 249 1376 243 1167 256 1458 244 1301 248 1361 259 1380
543 -20.3530457421755 -12.366325477479128 79.996766913905361 101 36 20 0.76946268450751287 240 1539 241 1538 245 1497 246 1565 250 1564 243 1391 248 1628
129 -2.7311303810786409 21.055947448361138 28.248702625186517 254 254 239 1.1628723671981092 240 1356 245 1298 241 1374 252 1318 247 1302 244 1373 248 1440 259 1358
670 5.4495932685163915 12.615857715061731 33.883110593328404 254 254 238 1.3775721818711095 240 1408 241 1431 246 1427 244 1435 250 1458 245 1364 248 1549 259 1582
1110 -129.44925586570906 -27.054268871339417 81.636019396266491 36 13 7 0.29890430263317103 255 1646 258 1774
1 -70.650598498989254 -8.506157272434006 119.65863755149142 178 120 102 1.0106476686045802 241 812 257 674 246 746 240 450 245 403 249 483 244 843 248 854 259 479 253 1119
542 24.048095512037072 -0.14621773537308136 15.417395524381904 254 143 83 2.228906136066247 247 1414 252 1354 243 1356 245 1412 249 1581 253 1873 255 1608 256 1646
1380 -4.0198010705228686 18.157952604037931 41.261113224662104 218 85 48 1.0622077940220638 254 1777 242 1771 257 1650
271 9.1348331560900249 14.9668302314029 31.332164401281879 254 254 239 1.4479758014259931 241 1553 250 1579 246 1542 247 1479 249 1642 243 1412 256 1700 244 1542
141 14.420296283189497 -15.005629768641448 27.261332087237669 254 128 66 1.5627139409468631 240 1436 241 1470 246 1459 250 1494 245 1398 252 1334 244 1461 248 1517 259 1539
682 -7.3375323515198767 -38.392606600865712 60.701439451361054 226 102 64 1.187284510609212 243 1384 245 1436 249 1553 252 1328 244 1507
15 -41.792361512845424 -55.241295423202324 102.57555323500387 112 39 20 1.4020628555310366 241 1469 257 1774 250 1557 246 1458 240 1489 245 1441 249 1560 243 1335 256 1626 244 1512 248 1571 259 1602 255 1590 251 2002
142 15.339392188242202 -15.804092464594991 28.851697799156419 254 128 66 2.2807319866519271 240 1437 241 1471 246 1460 250 1495 245 1399 252 1335 247 1394 249 1559 243 1337 244 1462 248 1518 259 1540
683 -26.901799959064011 -31.01485783860787 93.128420882890566 137 62 35 1.1315265981164979 240 1494 241 1533 243 1387 245 1447 246 1520 247 1457 249 1619 250 1561 252 1401 244 1517 248 1575 259 1605
273 16.66220919410328 -10.355503558332101 19.908091092903533 254 148 86 0.88025325540945243 250 1595 246 1560 241 1575 240 1534
143 19.312120202258107 -8.7459088326142478 25.676014074118502 254 101 53 2.0884628573527824 240 1444 241 1479 246 1469 250 1506 245 1401 252 1341 247 1401 249 1480 243 1347
684 -52.401043247811813 5.543822304893248 87.47489140525353 94 35 21 1.1182955155408425 240 1504 241 1542 243 1399 245 1456 246 1528 247 1465 249 1627 250 1567 252 1405 256 1686 244 1531 248 1594 259 1648 255 1653 253 1965 257 1907 254 1960
1383 13.602852245309277 -4.1760404467772698 33.750527750569766 169 72 37 1.2443464779748252 240 1378 250 1429 245 1328 248 1367 249 1233 242 1682 253 1703 258 1561 257 1622
274 12.248297624373942 6.1517696352504796 34.034695339659493 254 134 70 1.1368038431617278 245 1507 246 1576 252 1447 250 1610 247 1512 249 1676 244 1538
17 -18.988905827689983 -35.356733880414453 87.986921678570511 164 72 41 1.9248580787331417 241 1476 257 1850 250 1500 240 1439 255 1593 247 1398 253 1861 258 1704 242 1889
144 -0.51547441216617307 11.841884719543854 35.523948109355409 254 123 71 1.391324574748928 240 1466 241 1511 246 1496 245 1420 252 1368 247 1427 249 1591 243 1368 256 1654 248 1541 244 1429 255 1617 250 1538
685 -31.697002432174376 7.4248144785877983 74.538131252825394 114 49 23 1.2292380469393873 243 1361 252 1410 256 1687 244 1534 248 1596 259 1622 253 1880
1384 -27.041070750630642 -5.6045993664264904 99.552448081845753 114 44 24 1.5179925086851238 253 1707 258 1443 242 1566
275 -15.701593160850095 17.321576713713259 40.472398786127506 254 254 233 0.93134522022053967 240 1557 241 1597 246 1582 250 1616 252 1454 247 1518 249 1640 243 1409 244 1577 248 1606 259 1628
18 -19.123032899343873 -20.143289883492997 76.412606103698749 121 44 24 2.1413749651066252 241 1477 257 1778 250 1507 246 1470 240 1442 245 1402 252 1342 247 1402 249 1570 243 1348 256 1635 244 1468 258 1706 254 1890 242 1892
1254 11.490950915280617 10.922107961375394 26.874475669993505 254 114 64 0.68260577643815468 257 1919 258 1826 254 1965
145 7.8457713391875217 17.050697121439971 27.240066540586355 254 126 77 1.0378766250326996 240 1479 241 1519 246 1507 250 1547 245 1430 252 1384 247 1438 249 1606 243 1377 256 1668 244 1501 248 1562 259 1593
686 -12.986077684764865 7.777096755136907 41.347432357156428 160 65 36 0.088481427565362314 243 1363 244 1537
1128 -60.118079600447899 5.8396700022903776 34.657498646499853 0 0 0 1.2362513943556055 247 976 255 913 243 933 246 1052
560 14.867900058966413 8.75196987577716 35.949324113181234 225 130 64 1.0283012080065317 243 445 249 862 252 711 256 626
146 -0.025308647584295352 20.296016744235459 27.245758696824318 230 106 64 1.5819051660103742 240 1482 250 1548 245 1432 252 1386
687 10.577614734913986 7.3863775541713546 28.23868811394961 254 254 235 1.2024302702353127 241 1505 244 1539 246 1489 250 1533 248 1603
1129 -68.732835679457082 15.88895811848354 42.706462661278728 0 0 0 0.95561584734274119 245 975 253 1416 241 1207 252 1200 258 1305 257 1355
20 -10.790272531396777 -16.50946811836728 68.518909318197487 163 75 47 1.41290377808251 241 1482 250 1509 246 1472 252 1343 244 1520 248 1578 259 1609 240 1446
561 0.55743176709498576 -3.9363111975347014 54.779972349173704 243 108 72 0.97765315687657628 240 775 256 913 244 1081
147 16.355802376924899 -8.2976650541911692 31.298894709309479 254 121 69 1.615482160604403 240 1498 241 1535 246 1521 245 1450 247 1458 249 1621 252 1344 243 1388 256 1637 244 1522 248 1580 259 1611
688 -15.373431146579311 17.910884557243133 31.087867589615136 186 82 51 1.5220516164510174 256 1664 244 1544 248 1609 259 1630
148 19.22842503854465 1.0863274254804873 22.09368498949696 254 108 58 0.76543288243704921 240 1508 241 1544 246 1530 250 1569 245 1457 252 1407 247 1467 243 1397 244 1480 248 1597 259 1569
689 -43.935212218248495 33.922504610109286 23.838767360784352 125 45 26 0.3793884304919779 243 1418 244 1546 248 1561
279 -23.770328127937297 -35.965940384939643 95.443934448858585 104 36 18 1.7129752867042032 240 1493 241 1532 245 1445 246 1519 250 1501 252 1338 247 1456 249 1565 256 1677 244 1464 248 1574 259 1604 255 1640 253 1917 258 1769 254 1888 257 1852
22 -46.805298723543899 -63.682123511099071 84.410605771266745 148 63 34 1.5681753432599042 241 1522 257 1844 250 1551 246 1511 240 1526 245 1435 252 1391 247 1449 249 1611 243 1383 256 1671 244 1506 248 1567 258 1764 254 1942 251 2082
563 5.1532202245852528 -4.4290440794540764 46.221117191126481 248 123 84 1.7923062761125879 257 1049 256 1150
23 -96.005132084746435 -91.380073954250605 124.45296429715599 98 31 16 1.5868809104382957 241 1525 257 1846 250 1490 246 1512 240 1485 245 1438 252 1393 247 1387 249 1614 243 1329 256 1673 244 1508 248 1568 259 1532 258 1765 253 1851 255 1585
564 11.35014665890837 9.1755422251286074 29.820807368812321 254 176 106 0.73132411908658868 249 1111 252 956 256 1180 243 1081
150 16.376179877806205 7.7409367793387434 20.362728289856673 220 83 47 1.0655157583388151 240 1462 241 1549 246 1492 250 1536 244 1488 248 1540 259 1574
691 -53.048431973335894 9.6721545323791887 79.383979743858831 91 37 24 1.7824182516239395 240 1545 245 1460 247 1470 252 1411 256 1688 244 1566 243 1362 249 1586 248 1634 259 1651 255 1654
24 -96.512573684231171 -85.330947965738346 132.52187611764847 128 63 40 1.7019863763582859 241 1527 257 1848 250 1553 246 1514 240 1486 245 1439 252 1396 247 1451 249 1615 243 1334 256 1625 244 1510 248 1569 259 1600 258 1766 253 1855 255 1638
565 7.7584546376173895 -8.5297472104975238 53.606087195034704 239 107 59 1.46380344399815 246 1179 256 1321
151 0.39595085297760241 19.834411852326827 30.436110871290804 248 123 71 1.2688228885475583 240 1518 246 1547 250 1586 245 1478 252 1425 244 1547
692 13.373928771090991 2.6298086681429216 35.281936509598438 254 155 85 0.81535370163957765 240 1546 241 1585 246 1572 250 1606 244 1567 248 1635 259 1652
1393 18.990601554264586 -2.4519114122813974 20.680441265398869 250 126 70 1.4994372045251583 254 668 251 987
284 -2.8256163489883699 22.578103701656005 26.748943178493562 254 216 170 0.87522180670711802 245 643 247 678 252 604 243 616
568 -32.704455396941228 -51.374364180108707 48.069141937086258 234 111 65 1.0662203999954551 249 1362 257 1490 256 1436
154 2.6001741014089474 5.6374185959039398 39.034428746584524 254 122 73 1.1029104875079727 240 1547 241 1588 246 1574 250 1608 245 1506 252 1446 247 1510 249 1675 243 1447 256 1724 244 1570 248 1637 259 1657 255 1689
695 -23.995588599584281 10.70885375155323 58.394547231114693 114 57 39 1.5658653587475555 245 1356 250 1345 241 1420 246 1314 243 1186 244 1419 248 1478 249 1266 259 1494 255 1448 256 1484 254 1583
1394 -36.167041322199623 3.6168836526629033 83.391954959845606 135 72 50 0.22968286367793445 245 726 251 1014
285 -36.008658831123036 -59.510637234848005 57.054001241516751 237 111 67 2.2782698773295214 257 1001 247 690 249 1025
155 -1.8931527156549262 13.67799204550963 34.511076942591068 242 117 68 1.5623644109826087 240 1558 241 1598 246 1583 250 1617 245 1513 252 1455 247 1519 249 1683 243 1457 256 1731 244 1578 248 1643 259 1663
696 -18.44236356914919 21.949668134880337 41.068789611968718 160 91 50 0.74006044990048658 246 275 244 683 240 635 248 697 259 308
88 16.698071324373576 11.171427104199269 20.965632140818972 220 79 37 0.81811535048891582 240 1108 245 1035 249 1437 259 1330
1395 -37.496448999533108 8.6729580407886679 77.905746834498217 149 89 68 0.37584575928965452 243 934 251 1027 249 837
286 -0.053676782548831736 -24.519033541569524 38.129283440488457 232 102 57 1.8562122748410053 240 744 241 771 246 698 250 759 247 696 252 284 245 340 249 403 244 1053 248 1065 259 832
29 -38.134310028706075 -53.335276591686281 59.598540147762108 198 97 61 1.2341880289928226 241 1564 246 1552 240 1524 254 1880 242 1939 251 2080
570 14.135085760997631 -12.558960400687045 22.380641988991368 254 160 96 0.41544676527057645 245 1099 252 1165 256 1447
156 4.8581153138222941 12.802876479708766 28.620619060434024 251 108 63 1.0100770954161309 240 1560 241 1601 246 1585 250 1620 245 1515 252 1456 247 1522 249 1685 243 1459
697 10.937504837296949 8.342229496760746 28.895675514097611 247 138 77 1.4117625095777135 240 529 244 925 241 860 246 472
95 19.270395839018207 -4.4335522701421155 15.923489674941592 254 139 82 1.5302223631484595 240 1376 245 1224
636 -66.784013611225433 17.313850397961115 42.389088533180804 85 17 5 1.5060557232088236 246 1208 256 1351 244 1223 243 1075 245 979 257 1357 258 1306
102 2.7577524502539812 16.586693710377645 26.929901198547118 241 90 54 1.2800289282991106 240 1480 246 1508 245 1431 252 1423 247 1480 243 1378
643 -13.068428860969927 18.545049955632866 40.929179138365292 254 254 225 0.63764428200825751 240 1106 241 1097 246 1111 250 913 244 1254 248 1301 259 1325
644 -16.884325270696976 18.661258971880077 39.334613697104146 197 108 75 0.41252851575321603 240 1224 241 1239 246 1246 250 1251 244 1255 248 1303 259 1326
104 17.048761713831226 12.68866297421374 19.793986090676068 243 109 66 1.7028644729458133 240 1517 241 1554 246 1543 245 1475 250 1580 252 1420 247 1523 256 1734 244 1543 259 1629
645 -16.751312729960844 18.479033116410779 38.970861710056688 197 108 75 0.84643935212451815 240 1225 241 1240 245 1179 246 1247 250 1252 244 1256 248 1304 259 1327
1216 18.252807312460334 0.41254647473208922 15.966046176462958 0 0 0 0.3753643977486083 253 1803 258 1714
107 0.27886760745093014 -6.3313476425597708 54.377494249108466 239 111 58 1.0118464591703562 245 1498 252 1439 247 1502 249 1664 243 1437 256 1718
1217 19.429611292646658 0.21505015181175702 17.088874700178078 254 133 74 1.9432370098986198 253 1804 257 1792 254 1834 258 1715 242 1835 251 1915
108 20.011256477503697 0.34323506282288468 19.659573404629498 254 158 85 1.4079071662223921 240 1544 241 1583 246 1570 250 1605 245 1503 252 1445 249 1670 243 1444 256 1721 244 1564 255 1686 248 1633
649 0.9046804959269209 -10.827251765007006 56.553228965223347 222 91 46 1.2247723803783344 252 1064 244 1300 247 1106 250 1021 248 1237
109 16.794399773576135 16.17660516044749 32.215296027679628 213 128 75 2.0712236898560485 240 628 245 254 241 292 246 267
650 23.679669790646525 -4.8202209253841817 20.166936189018895 251 101 56 1.695044566118552 240 1279 244 1303 241 1286
110 3.3179686289373671 14.867884443226535 30.173178012545478 242 115 65 0.54343784690878538 240 655 246 283 245 269
651 23.679669790646525 -4.8202209253841817 20.166936189018895 251 101 56 1.695044566118552 240 1280 244 1304 241 1287
111 18.252175527482258 12.984119987254996 31.875414820260254 239 124 72 1.7645548492386773 240 563 241 887 245 507 246 855 250 874
652 -52.117404413888679 -4.5382954208978354 108.25257792443935 98 37 20 1.8314900368418952 240 1287 247 1112 244 1308 241 1188 246 1190 248 1369 259 1482 255 1531 253 1806 250 1322 258 1651 254 1759
112 8.2461046323653715 14.951290117788945 30.445278519034765 211 105 68 0.036562143133674015 240 914 245 861
653 8.0395138614673307 -2.7655682750139121 43.767693632904603 246 98 55 2.3679869571137138 256 1570 244 1311
113 2.7849423828555624 17.749099331727272 30.539089595503402 254 253 208 0.65051089726991651 240 941 241 953 246 952 250 954 245 896 244 1027 248 1029 259 1054
654 -30.33112485062896 0.60519013007864808 82.590767339127822 153 78 33 0.89887762443194563 241 1299 247 1344 252 1278 244 1315 248 1471 259 1486 251 1778
114 8.8175122156284313 14.918533918373265 30.186672237277882 254 254 234 0.65637930890888796 240 1230 241 1118 250 1268 245 1047 243 1000 247 1049 244 1272 248 1189 259 1217
655 13.836826235053634 0.7204883036079891 35.834775021732959 254 150 86 0.35587760303108928 250 1328 244 1321 248 1379
115 3.2575045780776732 17.979122361069827 30.868023006399955 235 111 62 0.54660614914587269 240 942 245 1060
656 -24.13866095582592 6.5400256652867457 70.704698721235545 178 87 58 2.2577837159952772 252 1193 244 1328 251 1622
117 -0.18485591216731476 19.034418420315493 27.872530176173399 254 254 223 0.42205054934212355 240 1244 246 1144 250 1143 245 1068 252 1034
658 10.918036815242768 7.7645034588351578 30.387077724430888 254 254 237 0.35815474237628003 240 1206 241 1328 244 1340
118 1.0383025801896029 19.590183163262182 27.078098045837379 254 254 225 0.44558801086561939 240 1141 241 1146 246 1148 250 1146 245 1073
659 11.145623602905898 7.9620748148507738 30.96911661483173 254 254 237 0.33951361039453065 240 1207 241 1329 244 1341 248 1407 259 1293
1228 11.82554521394519 -7.5301125655861689 33.157015708331912 254 125 74 1.284969387339943 244 1559 253 1957 259 1646 248 1627 258 1770 257 1853 254 1889 242 1891
119 17.956628870297948 -6.2078502146573289 27.105648192090154 254 126 65 1.8235847178997411 240 1167 241 1181 246 1176 250 1183 245 1109 252 1065 249 1225 243 1047 256 1313 259 1382
660 11.090864827376608 8.0620944237135213 28.885822664368938 254 254 234 0.9579369381941778 240 1316 244 1343 248 1411 259 1297
1229 -17.179731437650169 -19.626794644944667 78.53307431868302 142 69 44 1.5183779026253383 259 1608 240 1495 250 1562 245 1448 242 1893
120 17.81610781185012 -6.1611817067439398 26.929348309746636 254 126 65 1.6810421391571737 240 1168 246 1177 250 1184 245 1110 241 1182 252 1066 247 949 243 1048 256 1314 259 1383
661 -18.84235888529205 17.790224196631577 40.773710588507811 254 254 235 1.160601886572834 240 1326 241 1347 245 1272 246 1338 250 1374 244 1353 252 1119 248 1416 259 1311
121 -2.9358923111099413 21.661267516680816 30.239771397004816 223 107 62 1.5273894472717759 240 1352 241 1260 246 1264 250 1281 245 1194 244 1282 248 1337
662 3.0875017354580847 14.338512303571852 33.011871321189489 254 254 233 0.44703319359750493 240 1335 241 1352 244 1356 246 1248 248 1422 259 1439
1231 18.318023408445576 2.8708187255803526 10.975188178829764 254 114 59 1.8357470786643333 257 1857 258 1817 254 1896 242 1837
122 17.832723723023694 -4.6606023124742757 28.6776332410385 254 116 63 1.3765703743077047 240 1171 241 1288 250 1187 245 1227 252 1068 247 1229 249 1228 243 1050 248 1365 259 1389
663 10.194819140079463 14.259096156112999 29.278362610567942 241 110 69 2.0708671067335196 243 1225 244 1360 247 1287
123 14.574834104880134 2.1433887964320109 36.570903466196555 254 160 90 1.1457613221192509 240 1298 250 1213 245 1240 249 1400 244 1325 248 1387 259 1403
664 -20.394839480749216 21.802197276207629 38.616051080853957 254 254 236 0.11495131947283697 240 1342 241 1363 246 1349 250 1384 244 1363 248 1427 259 1443
124 8.0480419020910166 6.39488684752925 33.254575544296692 254 151 91 1.0279974145302291 240 1308 241 1319 246 1316 250 1349 245 1249 252 1201 247 1252 249 1406 243 1187
665 -0.10780105237811831 18.989085420361796 30.668955702847327 227 111 67 1.3627349517373459 241 1256 244 1369 240 1240 248 1433
125 10.53574793803989 15.588666119150348 32.519657676542636 254 254 238 1.7940656273051467 240 1416 241 1442 245 1283 246 1435 250 1472 252 1229 244 1439 248 1493
126 6.1383329486371228 15.674457358160115 30.509428397843944 254 254 236 1.3086995996058997 240 1346 241 1368 250 1272 245 1292 246 1352 252 1239 247 1291 249 1447 243 1233 244 1365 248 1429 259 1444
