# 3D point list with one line of data per point:
#   POINT3D_ID, X, Y, Z, R, G, B, ERROR, TRACK[] as (IMAGE_ID, POINT2D_IDX)
# Number of points: 306, mean track length: 7.4963469518966628
9739 -1.3594196811806722 -2.1695243981886549 6.1225220375432796 199 69 30 1.6561976200402988 197 1694 206 863 189 1816 194 1824 201 1142 207 823
20012 1.5420534881132086 -0.067361105246854527 -1.1437612323231443 237 144 87 0.66133253099547618 284 817 281 702
9738 0.55608843728795065 4.4613677361203035 8.8621534627687097 171 58 28 2.1784987412475534 194 1778 206 785
30488 1.9023326435136942 3.6521630189932401 -0.095499414560004076 0 0 0 1.2082337027686625 343 1164 347 1211 353 1173
9735 3.8268114139342204 1.3805586016193672 11.318627196731702 210 105 70 3.3077494903878462 179 756 206 698
30487 1.4306934592309191 2.5868565731015698 -5.5762656367349095 190 82 50 1.5017560364728877 343 1161 324 1055 337 1179 348 875
9734 4.7728412341665365 0.81784572724118421 12.79428063437407 253 123 76 0.72712507501455548 147 655 206 679
9730 -1.2168330769210978 -2.4560153932983551 6.2517159015659125 210 76 24 1.2035754791843407 194 1332 206 467 189 1518 200 411 190 478
9728 3.3944258679728057 -5.6896162250724185 15.71079083402644 191 98 68 2.2476121551369519 206 196 187 1042 207 456 201 429
30477 1.5581916624801513 3.8467000617114731 -1.6733328698463326 199 70 33 1.6213327092888505 394 972 358 970 395 1091 350 928
9724 0.41422840256618887 -5.7348649937183245 12.256784119342576 161 56 24 1.3914082180559801 189 2227 190 2099 194 2543 198 2078 200 2004 214 1708 206 1716 197 2311 207 1617 215 1662 201 1619 208 1632 211 1811 212 1714 216 1759 213 1689 183 1787
30473 1.5520807431273327 3.6433810502566026 -0.68598487493314775 222 94 55 0.39738654377248384 378 685 358 864
9720 2.5658972645767766 3.4875246777569973 11.369575335569932 191 99 56 2.8492873874354498 145 1003 214 685
30471 3.0883996390771182 3.2836982274565001 -3.7040974583900943 183 67 36 2.057691876776977 375 498 358 847
9718 4.211963588725661 2.183040246175874 15.306392658382151 162 77 52 1.6395316987131885 150 1419 189 2092 149 1457 214 1491 142 1525 146 1544 156 1619 157 1603 147 1502 151 1546 188 1620 176 1346 148 1529 159 1689 189 1949 197 2073 200 1735 158 1511
19991 3.6290583186009111 2.626103463126332 0.71219727244520126 0 0 0 1.2156218775430396 251 2077 279 2138 296 2117
9708 5.3510797363514211 0.59295131005369328 8.7792979185977487 250 126 77 2.0310287184143414 200 2125 214 1816 206 1881 207 1823 215 1807 202 1757 201 1727 210 1696 209 1724 198 2203 213 1835 222 1262 225 1537 234 1389 259 1494 208 1926 235 1410 219 1440 248 1478 236 1313 244 1419 246 1314 250 1345 278 1861 264 1843 262 1735 269 1824 190 2233 226 1361 277 1899 282 1675 268 1751 265 2061 288 1763 266 1631 230 1664
19981 5.361514766102462 -1.9099971317116533 2.393693416146113 176 71 43 1.94852136121256 288 1895 295 2030 268 1941 296 1985 279 2013 251 1774 265 2184 273 2159 277 2190 282 2263 269 2120 280 2241 262 1990 283 2023 266 1731 267 2135 300 1758 303 1634 302 1783 319 1277 323 1532 331 1722
9691 6.0557316458879145 -0.9011977344758656 15.217745501780309 152 62 19 1.6105507531325933 160 1687 200 1956 198 2039 214 1740 201 1652 218 1663 231 1428 203 1493 203 1421 185 1566
19964 3.103380127702096 -1.4747320853477972 -2.2783057613683542 0 0 0 1.8791071420717409 265 2416 288 2134 269 2298 273 2465 290 2332
9689 -1.650947639524414 -4.1195150359068684 11.50752591195605 0 0 0 1.6706507334511742 153 1664 172 1807
19962 2.0132636871357819 -4.4580511175901911 6.6695206171108516 0 0 0 2.2093496984452199 242 1886 285 2152 282 2348 280 2398 283 2163
30438 4.9086044388678225 1.815916751669779 -2.2536080396054574 254 254 237 1.8606289871486297 322 1632 343 1183 350 1095 330 1704 347 1194 383 1147 393 1381 331 1929 358 1137 340 1094 337 1203
9685 -0.47832294694079741 5.3236268965201496 14.1645837313103 122 35 16 0.93179918067411982 191 1648 214 1685 215 1627
19958 6.1975280785887916 0.2655852669422189 1.311789596586048 254 146 80 1.6739471870506051 261 1792 266 1815 317 1914 264 2132 262 2011 270 2073
9680 3.5134940205774199 -5.966496740826023 6.1689328664965117 254 114 69 1.2097968482973005 197 2234 198 1889 190 2001
9679 2.0578256405431672 -3.2564265243117139 4.9381725609345128 0 0 0 1.2572367330743566 165 1720 172 1739 168 1881
9678 4.8098829328514467 0.76049634799773602 5.9257031115245802 254 254 229 1.4350143462888929 190 2085 198 1988 214 1627 189 2209 200 1893 206 1692 207 1601 202 1601 201 1615
9677 4.0784967043688285 0.81644320462985398 7.5910419494614567 199 83 50 0.090973876718904695 190 1987 214 1622
30426 3.752630836224518 2.9793889694525997 -3.176294931015252 222 85 43 2.1031440984549086 343 1196 347 1161 350 1068 358 1113 324 1045 340 1065 348 869 382 1054 389 1664 391 1228 415 1025 396 1251 436 963
9673 6.0280436372388273 -1.1612737216637217 9.6059219298160947 226 86 44 1.8831482001559579 190 1962 198 1948 200 1857 214 1595 206 1663 207 1576 215 1501 201 1530 213 1512 210 1484 219 805 235 1054 259 1115 248 1096 236 1064 244 863 250 1045 252 674 256 1154 255 580 218 1331 209 1530
9671 0.38971887857073106 -1.6175180977002548 11.742751436861678 90 34 19 2.4307787625359909 170 1564 214 1573 179 1584 198 1922
9668 5.4496340822639402 -5.5104421168094362 7.799670346922043 239 90 46 1.2980315651365468 167 1851 170 1527 179 1671 204 1435 217 1309 232 1268 220 1135 221 1170 223 1178 184 1562
19941 2.5666885236704493 -1.1788119112760767 -1.5028924047138994 0 0 0 2.5638500529592569 269 2215 292 2209 272 2262 285 2155
30419 4.6263647617885928 0.29987333030966573 -0.58962844941140513 228 91 49 1.139628711112425 338 1376 347 1062 350 956
9666 5.3399872941894237 -0.18898845187357929 5.4349199963213231 251 128 79 0.76912180448657752 190 1877 214 1534 189 1982 194 2297
19939 5.5034543186681324 1.5022332789617974 1.0961448517789094 254 140 76 1.6345030249737655 262 1918 264 2021 266 1664 278 2158 318 1716 300 1800 301 1848 303 1801 302 1717 299 1624 304 1692 310 1525
9664 -1.5694277114761228 7.4103466904975122 25.860550649973526 99 42 28 2.7318668146474185 157 1512 214 1484 205 974 211 1345
19937 4.3986257756098635 2.4068104361546818 8.0748521778852531 101 38 18 2.4591157786411686 251 1808 262 2017 266 1643
9661 -1.9135780919630803 1.2674808603818113 9.0300324321411285 217 85 49 2.0966372187471092 187 1710 200 1696 214 1463 190 1944
19934 4.2509364389590152 1.1977941985377714 7.1808362620332993 115 57 35 1.2304003786760795 269 2012 288 1907 266 1636
30413 3.3552622597335504 -0.093970567681056841 -0.90153872465814155 254 248 206 2.4660224586293191 330 1541 350 854 358 746
9660 0.76037851701770598 -4.4570318627095045 21.926667703468496 154 81 58 1.7212189028552429 143 1329 179 1700 194 2171 216 1335 213 1478 218 1144 204 453 239 868 177 1629
9659 -2.7223583637893101 -1.8710530940414485 11.506072319411421 109 39 20 1.7103258281618487 200 1818 214 1421 189 2153 207 1549 202 1408 201 1496 208 1258 196 1456
30411 2.7518495036065191 3.5673987665967895 -3.528874142140856 199 72 30 2.0466981605884378 369 970 386 824 350 823
9658 4.7932747970976566 -5.5825468531813822 8.9443375928648443 251 112 68 1.7243418388176481 194 2142 214 1413 190 1479 205 1200
9656 5.1479907078526734 -0.37590912373886942 4.4744454960368234 225 117 70 0.14405892771897116 198 1706 200 1601 214 1375
19929 4.4371779698927645 2.4719022551170813 0.11324626577002954 239 114 65 0.0087441350029234671 278 1979 266 1606
9655 5.1506998089381817 0.5805483249791713 6.9698314605247624 254 122 79 1.4741356582494474 190 1699 214 1373 206 1174 201 1330
19928 3.525911131020226 1.7146283083334577 -0.13508034059733476 0 0 0 0.58580703416388324 275 1698 295 1675
30404 1.1623182690410607 3.0052582629022129 -5.8823810509422971 254 254 227 1.2516249640790582 367 635 350 663 366 714
9651 6.4294514682425969 -1.6327411566437737 8.1320043165683664 254 221 181 1.2701312528120057 190 1228 214 980 198 1221 200 1158 206 1053 202 966 210 890 218 894
19924 2.5333238428284646 1.9951572901836045 4.3682102684544484 0 0 0 2.6760453650649665 263 1671 269 1601 290 1635
30403 3.9263224138780575 2.4604326646801762 -4.037279698973836 238 104 64 1.9633523123833565 360 763 350 625 363 867 364 728 354 1120
9650 -0.91482746897713019 -2.3477057655806601 5.3490738846537749 218 78 39 0.59007823772644519 190 466 214 803 206 457
19923 10.266982564089959 0.22924140228701351 1.2422110486505311 254 254 214 2.2231307080489908 273 2006 277 1920 282 1956 266 1506 265 1884 280 1958 283 1939 290 1864 269 2017 285 1976
30395 4.1091358118672527 2.6722020016777353 -3.7853165059765481 218 92 41 2.293676051742199 370 683 376 428 350 379 375 703 358 222
9642 2.9779717819448979 -6.6990343958986571 15.931722754885017 149 58 30 0.59423025991058276 173 1832 193 1999 169 2034
19915 4.7690620243193944 2.0404350637592539 -0.50818784908144787 221 83 37 0.95707769564413636 266 1441 312 1665 293 1900 301 1767 299 1647
9639 4.9615359705525819 -6.7819263787605859 13.024624937828083 254 254 240 1.6312418560985755 188 1554 195 1553 151 1485 150 1384
19912 5.0998863700497949 1.8166450436066901 1.1876054238411815 233 117 55 1.7957868199371052 264 1419 268 1645 266 1384 312 1233
9637 -0.86044801465983622 -5.4349657327695429 15.286691103138937 128 60 37 2.713894240554819 166 1288 193 1794
19910 0.19451107232413581 1.9851887121151415 3.7240890178369566 121 49 33 1.9843420803514382 268 1568 266 1325 278 1674 270 1595
9634 3.4048382338401697 -7.0531411492097149 16.669943051048936 201 110 82 1.2057340681368944 166 971 193 1256
9631 7.1085424991478119 -1.1521471791826623 10.879243985082747 125 48 24 1.7684834326189023 181 1474 187 1577 194 2402 188 1594 225 1177 230 1323 228 1360
30372 -1.355138371488426 1.9269667136945854 -5.5122696092855099 143 51 21 1.3301176475571568 389 1686 392 1833 395 1340 391 1245 388 1024 401 975 410 1206 415 1045
9619 0.71263683433068459 -5.5948446389082429 8.9557848707924279 154 55 26 1.7441926450164036 189 2303 197 2368 193 2126 190 2181 194 2621 200 2076 214 1769 198 2160 183 1888
9611 6.2943527298493507 -1.4158169626698478 9.6089007079957831 253 115 63 2.1085779303229462 142 1639 198 2124 201 1656 206 1861 219 1255 235 1322 248 1092 290 1566 189 2273 269 1548 282 1257
30350 -0.1861397644188317 2.5524852711310082 -1.7320246932961199 254 120 70 0.98093406305887798 353 1463 354 1565 356 1170 351 1141
9597 1.5113895322958539 -5.2692319129387108 19.823001305632005 93 29 14 1.3025595023517897 191 1592 193 2004 201 1501 206 1509
30343 4.149485910696523 2.1995257953604566 -3.9981852448834698 254 120 58 1.3019555784670427 344 1181 356 1188 351 1120
9590 -1.8493685777291902 -5.56423513068835 17.878891702096801 134 63 36 2.2491747336241636 103 1626 189 2141 194 2469 197 2247 200 1808 193 1933 206 1725 201 1488 125 1531 205 1597 212 1892 214 1644 210 1551 196 1447
19863 7.7193878148510384 1.3027365513829399 2.2106681349897701 254 254 226 1.7079866854794656 255 1566 288 1629
9584 0.28149638162427021 1.7911453537816799 8.6062024531118766 108 30 12 0.41426747087995019 197 2208 193 1886
9582 2.2987986260448672 3.1906180221267051 18.761129740874193 79 22 8 1.9805417970214969 132 1738 110 1737 120 1680 125 1662 111 1601 206 1551 208 1541 200 1724 201 1533 210 1485 183 1716 202 1569 209 1452 214 1600
19855 3.6575090186537844 -1.8878311044949847 -1.6686002247434997 254 121 59 1.9317862538222017 262 1476 271 1698 279 1892 265 2036 283 1736 251 1389 288 1555 273 1305 278 738 280 706
30333 2.2622316147682358 1.0551013017727116 -5.0902573156549176 251 121 65 1.3478466566760205 353 1369 354 1520 356 1120 360 1709 361 1616 362 1740 368 1764 379 1650 363 1471 373 1800 351 1064 350 1097 358 1139 340 1097 324 1082 337 1205 357 801 352 923
9580 5.6282479622384392 -1.4016847007426236 8.9974004049064877 168 61 26 0.8633954053709143 194 2228 205 1278 211 1337
9574 4.0188249079110463 -5.6387584854929829 11.14068740758978 254 254 223 1.3633485417293345 187 1648 193 1798 181 1550
19847 5.7889725687506859 0.7267767860071549 -1.2008922582786941 250 105 57 1.5502176717578582 307 2236 288 2166 310 1712
30325 1.2049335100789853 0.90880150331446319 -5.0101177245148811 234 86 33 1.4777591697474748 361 1545 351 1012 360 1631 362 1657 368 1685 373 1720
9572 -1.5696410013135806 -3.4004458296826212 8.360566520786179 156 56 26 1.0790736304091935 197 1939 189 1818 190 1450 194 2125 200 1633 198 1728 206 861 215 849
30323 5.2912995542938237 -0.14592567220468627 0.037958129716089362 0 0 0 1.4288659601121056 373 1712 387 1870 368 1562 393 1360
9570 -0.16692879963183144 -5.1147983137534787 8.395077590276065 193 82 51 1.3726867058170384 189 1812 193 1775 190 1443
9564 -1.2563588272007444 1.2729477287798459 10.520201746798316 122 47 23 0.45090470481786821 138 1026 193 1686 103 515
30316 4.1036662063157712 1.5812553432333962 0.6287111971269348 254 254 233 1.1450451606355923 356 1004 380 877 351 947 353 1228 354 1343 361 1438 379 1346 360 1368 362 1384
9563 6.4879609453599913 -1.8167198882498314 16.372579805195898 233 149 120 0.93968027120940312 197 1456 193 1684 194 1567 189 1229
19836 0.21681572871198343 -4.418933754133973 5.1464717533233033 0 0 0 0.46770689129945953 254 1939 278 2255 268 2097
9561 -6.2380366083110479 -0.52670362204591836 8.8165004703240104 144 65 41 2.5489294066727806 132 468 193 1644
30309 4.0235914077958519 1.8329047723753402 -1.2074048742754604 0 0 0 1.366979773882542 361 1305 380 682 381 829
9556 4.5930871088383576 -6.0053052498741692 10.399459818897357 242 140 109 0.66812194343558517 187 1323 193 1610 181 861 195 1236
19829 7.6976706326592073 -0.16076548729626494 6.3162377983726685 189 76 41 1.8228828444783529 243 1449 249 1677 263 1925 289 2296 318 1805 317 1905 303 1870 299 1757
30302 1.3692005462698082 -0.29947444306723542 -4.2155589389364518 249 120 16 1.0410125084386594 354 688 361 666 351 726 353 385
9549 3.2307484830102244 2.3920309231928667 14.96341974825704 157 75 45 0.82938447796329928 134 934 193 1475
19822 4.4660881782755197 -4.3569534950496385 5.4269588241313365 108 38 19 2.4920887512109702 251 2004 265 2163 270 2131 274 1761 275 1931 288 2060
30300 4.3380987007052596 1.308363000631702 -0.7667385754742857 234 116 61 0.39734969916366819 381 418 351 633 380 338
9547 2.8355656676971219 1.5613425277711994 21.167901331674333 97 43 27 1.3905170425767654 140 610 155 750 193 1429 131 520 126 954 139 1001 141 702 137 505 146 249
30298 4.8542406820691966 1.7678913717858673 -0.5103206645583902 242 95 43 0.71956422911090157 387 769 351 451 340 614 337 871
9545 3.9349197594505925 -0.61581399646806623 16.68474241954776 116 42 22 1.8818745928341982 108 950 193 1406 99 828
30297 -1.8024490741966677 1.7491995624752381 -1.6859584700639774 150 50 20 0.95326524227621368 388 1031 433 1108 400 1019
9544 3.7197171764255312 -0.3775172660885715 20.631333892242065 91 36 20 1.5527816390336358 186 1228 193 1403 188 1502 181 1482 183 1254
30296 -1.8020819268411177 1.7542604018684256 -1.6843439853376234 150 50 20 2.1419814237692982 388 1030 433 1107 400 1018 399 911 390 1295
9543 -0.87105753319956236 -0.80395671213037878 7.452765133629045 254 254 228 0.76590932509175069 172 654 193 1299 168 724
30294 -1.5896628081589141 1.7844516697177517 -1.3803916144918034 139 43 14 0.5126401815626076 390 839 433 854 388 801 396 731
9541 6.9311875798377365 -5.2371598524378546 8.9436071882424404 207 99 65 2.2936651142394857 131 728 193 1295
9539 3.946693706828698 -6.2176604992225979 17.470016364663465 134 55 35 1.8855447979940152 163 957 193 1285 161 1421
19812 5.0978071970465377 0.48390604684980082 -0.12963671149205697 254 254 235 1.0005624204833359 307 1966 267 2036 284 2043 281 1925 310 1393 331 1622
30288 -2.2041260204580526 2.2012282068793412 -1.7553938536857931 170 56 2 1.3792127713874132 390 1050 383 739 388 687 394 995 433 870 389 928 394 381 391 715 398 838 400 877 401 592
9535 3.6146657707324645 0.48084958013391466 16.386075309534601 168 86 61 1.6692698791523939 135 906 189 723 127 497 193 1002
19808 5.4453501880708952 -0.84392197239902755 -0.18970324803957081 254 254 235 2.5700051132365287 267 2144 284 2120 307 2070 289 2096 294 1996 317 1782 318 1675 308 1516 302 1560 303 1639 326 938 349 1122 336 1049 333 959 321 999 293 1772 359 841 335 850 339 787 341 646 392 709 389 992 380 481 390 692 387 1131 393 745 383 560 381 604 384 485 388 502 433 714 391 746 395 745 396 528
9532 0.10998710870660698 -0.31276657894654791 9.6057992434939035 94 55 49 1.9366174579735942 132 1237 193 912 116 1239 120 1177
19805 5.5552026065229372 3.5102720745728835 1.3828291220055706 254 254 228 1.2978083266670615 263 1723 279 1871 296 1949 288 1978 275 1703
9530 -8.0786409155298102 -0.29352542095012729 22.191826129369627 98 27 7 1.3784684564197018 108 976 193 870 109 1424
19803 5.2988966050494506 2.0879322610767503 -0.64764974019380428 241 96 53 0.77148675739620554 251 1869 269 2189 272 2242 273 2355 277 2249 280 2306 282 2330 283 2075 285 2136 292 2188 295 2097 307 2112 288 1961 284 2168 281 2075
30271 -2.1178177899098118 2.1787867836204513 -1.6808515549687228 199 87 30 0.98848369884929521 393 1128 433 1047 391 1056 396 1103
9518 4.8444995432586992 0.88478482767729849 16.141632638227069 112 43 18 2.2248043809931572 147 1492 191 1625 152 1389 184 1613 159 1565 150 1349 153 1521 166 1601 162 1555 151 1535 158 1503
30246 -1.2323035407737708 1.5740449487522987 -5.4351232324020726 186 85 52 1.6835658254909609 387 1926 388 1011 389 1674 395 1328 394 1171 393 1424 433 1146 391 1237 396 1260 397 1149 399 993 398 1077 400 1118 405 1130 410 1245 415 1076 402 1313 424 1032 407 1065 418 1066 414 1035
9493 4.8498606675355616 1.125891808615322 10.224965109158569 204 86 45 1.4389032697549899 200 1757 215 1348 198 1971
19766 4.136043310974693 0.24082213417859277 -2.4212065832002656 184 63 18 0.68779087684502771 271 1441 288 1612 290 1288
30233 3.6861447407688179 2.1058472270733861 -3.93709054314929 191 69 29 1.4693925328742938 373 1738 380 1048 384 1071 388 991 389 1657 390 1249 393 1392 395 1372 383 1155 381 1168 395 1299 392 1724 387 1812 381 1243 394 1154 433 1070 396 1248 396 1308 398 1031 405 1117 410 1182 404 1292 424 1011 418 1111 407 1049 413 859
9480 5.920554283923618 -1.3687884278315166 11.204443067012738 228 117 78 1.6361923875819648 165 986 198 1203 190 1198 189 1256 194 1594 197 1486 200 1510 206 1039 207 1289 214 1296 215 980 202 946 208 983 205 942 211 966 212 996 216 563 213 1012 210 1197 209 931 175 1040 239 903 259 498 172 1052 248 868 236 835 244 853 240 789 246 758 250 808 241 478 252 672 249 204 256 582 203 546 229 524 180 1264
30225 1.5492463693086727 3.7409205879991267 -1.7383975180671569 254 115 65 1.6820455247141137 356 1044 382 936 351 989 394 1056 433 1024 396 1165 397 990
9472 6.417916913221525 -2.4503739220496117 10.0688409529753 206 76 39 2.2108906999686391 189 2383 190 2266 198 2230 214 1845 206 1972 207 1852 215 1911 210 1749 219 1508 259 1552 248 1466 236 1434 244 1474 240 1449 246 1393 250 1513 247 1336 229 1529 235 1480 205 1946
19745 4.9028538805288484 0.86560268674698393 -1.8986287973798004 203 72 30 0.74060832299541857 279 1639 288 1338
9467 -1.2696304575757584 -2.9597662945991536 6.9871509401044101 203 84 50 1.4956232745326985 189 2358 190 2242 194 2677 197 2419 200 2133 198 2210 214 1827 206 1901 201 1739 202 1773 213 1780 210 1640 209 1672
30215 4.353883983592838 2.079876806523691 -0.45845669033700293 177 75 44 1.6409943150105881 356 885 381 835 394 915
9462 6.2454890708801942 -1.5468417981959774 13.955792016428452 232 111 70 1.6448403437866426 150 1538 190 2144 194 2582 200 2036 198 2187 201 1651 158 1669 151 1693 203 1548
19735 5.1987301304860578 3.3771260775879988 1.3468228835904308 217 91 51 0.9656655803548011 271 1532 288 1097 266 1228
30212 2.2070945816712961 2.4188290744206973 -6.1004621863019359 214 90 54 1.0695538918195722 376 686 394 766 391 579
9459 5.7616184767178611 -4.7902709212508023 7.3141684570941914 234 109 64 1.7132150768806071 189 2374 190 2195 197 2432 198 2172 194 2691 207 1846 202 1837 201 1750 208 2035 205 2001 211 2018 212 2111 213 1930 210 1795 223 1423
19732 5.4467477644405839 1.3298904716507756 -0.82287867462942788 254 138 82 0.75201236206690469 277 1466 282 1460 288 937
9458 -2.6791224028170775 -2.9628514706918709 15.496777834681849 84 29 16 1.2589124169549293 163 1873 189 2315 190 2191 198 2169
30207 1.7737337557655541 2.8991122820020134 -5.5850518070195454 208 90 55 0.57605050012329251 375 726 394 535 399 514
9454 5.6008701255669875 -0.018570790822370759 8.4854798224187693 224 83 41 1.4134796954359832 189 2289 190 2169 198 2142 200 2059 214 1754 206 1875 207 1753 215 1801 202 1751 201 1669 210 1610 248 1393 240 1196 254 1410
19727 5.0578885413313346 2.3118824480046509 1.6829463828686029 254 253 219 0.42822902711216876 285 122 288 167
9449 6.2347037108357419 -2.2202248016411259 10.098998240962143 195 70 37 1.8969899245254744 187 1821 188 1793 182 1621
9448 -2.1450882188772034 1.7284577898361315 9.8273000113091733 242 119 77 1.7101744540223143 200 2033 181 1802 198 2116 214 1735 206 1849 207 1726 202 1647 201 1649 190 2212
19721 5.6538691654971691 0.69476424023616545 -1.1227076123399524 247 98 43 1.6679303866355715 251 1140 267 1390 275 1431 277 1727 280 1754 282 1978 283 1595 284 1680 292 1681 307 1603 288 1637 285 1269 272 1396 290 852 289 1745 294 1627 293 1591 317 1665 312 1165 302 1421 297 1157
9447 5.935851847556461 -3.3747798410795404 6.4750847885671199 246 116 76 1.7396766326427089 197 2329 200 2025 194 2570 214 1727 206 1842 207 1720 215 1772 202 1789 201 1643 208 1891 205 1858 209 1692 210 1668 213 1806 231 1374 259 1471 248 1360 240 1373 203 1418 229 1431 219 1416 279 2007 269 1982 282 1914 273 2157 277 1882 251 1772 263 1629 283 1739
30197 -1.5320487821541111 1.8797048859257279 -1.2807644419702451 164 56 26 0.45576962190572118 389 422 394 91 392 145
9444 4.9014001053017635 -5.4691801390079844 13.046629714714259 114 43 26 1.5335359117337359 184 1713 200 2014 161 1951 237 1488
19717 4.0170774454420837 -0.59938573085922953 3.9330765726995227 98 27 9 2.0651286802008304 279 1160 307 632
30195 1.7695285071052578 3.5542627922222318 -4.8831218080503511 254 152 98 1.2670009822281749 343 517 356 828 324 814 340 815 357 567
9442 4.0655240630068343 -5.6946305844995457 8.6739803855657289 252 106 63 1.9155785128042906 189 2231 190 2103 194 2548 197 2315 200 2006 198 2083 214 1637 206 1720 207 1623 215 1663 202 1621 201 1564 208 1774 205 1732 211 1815 212 1890 216 1938 213 1691 210 1550 209 1586 193 2063
9432 3.6887711309821358 2.2642334255183552 10.009443620048822 223 106 63 2.0521810807065868 194 2435 197 2225 200 1987 198 1976 214 1691 202 1589 215 1534 210 1505 189 1981
30179 -0.31220871159329228 2.3458708548174294 -1.4495310514334747 254 115 68 1.7175710114126472 353 1420 354 1563 361 1661 356 1167
9426 3.8001664933587769 0.96998203752112933 10.904032508159929 235 104 71 1.9823754548718684 200 1741 198 1963 214 1494 206 1673 207 1480 215 1622 202 1576 201 1444 208 1556 205 1508 211 1575 212 1632 216 1680 213 1530 210 1492 209 1460 218 1339 220 1320 217 1363 221 1195 190 1975
9425 4.0226818125827215 2.1759257599307742 14.823597065072599 174 83 54 0.66768415834148032 171 1802 201 1441
30174 2.9611103869848474 2.8119054741987242 0.039161281782489406 0 0 0 1.8917942323897319 355 1333 369 1490 376 1360 386 1238
9421 5.8128028541329266 -1.3059788017434915 10.642968183732117 0 0 0 2.4854502385288644 191 1686 197 2185 201 1423 198 1944
9418 3.1162256201883456 -2.3883335784201121 17.159217437018452 95 36 12 2.0422759881769146 160 1623 200 1679 198 1928 214 1449 206 1524 201 1399 207 1236 213 1294 162 1618
9409 1.7570784045222965 -6.7492145702118576 6.8284975647621255 254 139 80 1.2663909536274265 197 2117 200 1792 198 1882 194 2118
30155 4.7949226695187539 1.780797058595827 0.038814618186233628 0 0 0 1.1210023036185857 369 1380 380 880
9402 6.8213174997763195 0.57448368091907043 11.170627349037817 216 87 45 0.42510913341481998 151 1309 214 1501
30147 5.3949836955438624 0.31953471899957203 -0.36469702369797963 254 254 221 1.7692716963061945 388 840 389 1573 390 1179 356 933 395 1225 394 1080 433 1053 351 904
9394 5.5929031439387016 -2.0516515313368724 15.753440236865329 167 68 38 2.31739636840403 200 1103 198 1579 206 1326 214 1272 207 1258 215 1275 202 1247 156 978 223 940 226 1025 225 1146 230 1307 224 928 227 883 231 764 237 864 171 1746
19667 4.0569479979600107 -0.21128716695947855 1.9035815055441769 208 101 65 0.21833937385044383 296 1516 307 1129
9388 5.9810040785303284 -0.53171704644177398 3.9848423704733538 254 253 222 0.44887041891257518 189 910 200 1289 198 1357 194 1204
19661 1.7628627032060247 2.270096845022576 0.94778648965647871 142 63 32 1.5043613159979212 284 558 296 1065 307 1034
30134 4.5251653827156533 1.9285591063875249 -3.4525806060409829 229 137 73 1.1670586394084757 339 872 353 911 356 681 344 842 354 971 341 765
9381 5.6790388173941224 -1.2683558622169004 4.7551379258398168 254 254 225 0.2249747044215317 190 1262 200 1189 198 1260
30132 4.003316306434745 1.2292368199022028 1.361590776268149 165 70 42 2.0076921941248531 325 663 353 477 354 765 360 716 362 655 379 408 356 659 339 638 341 894 361 743 342 903 357 245 351 432 345 692
9379 5.283572945077295 -1.178968338856331 7.4982922973999502 254 228 170 0.9379702798155547 190 1242 194 1636 200 692 198 1232 189 1305
19646 5.608020374224636 1.4433482212290296 -0.9522321131811935 254 130 75 1.8071040820643163 275 1181 284 1725 280 1812 290 1374 306 621
9371 5.9958613963189569 -1.2486020615827711 4.8487371004437119 215 77 48 0.091182070018693592 190 771 200 297 198 785
19644 4.8573200844570117 -2.5793562835559922 0.83810846284553209 190 99 63 1.6457724164845162 260 1658 275 1570 270 1751 278 1843 261 1680 268 1846 242 1561 263 1621 317 1385
9368 3.2471025233563635 -0.99263643157052772 21.969772394459753 138 72 49 1.3976411144203253 126 907 198 678 220 451 145 870
19641 5.2850263740400552 2.3541761794557514 -0.4714901033007427 230 124 79 2.4152865362407208 263 1591 267 1968 270 1883 278 1969 296 1938 279 1979 262 1954 275 1689 290 2077 277 2147 282 2219 273 2103 269 2078 280 2202 271 1663 251 1735 285 1910 292 1956 283 1991 295 1993 272 2128 284 1963 288 1864 307 2026 266 1705 289 2177 281 1870 294 2071 318 1768 312 1957 276 1853 308 1588 303 1916 304 1814 305 1245
30120 1.2535854372854884 3.9469564752340416 -3.5873350773507346 180 61 26 1.3714052082195782 382 942 389 1626 355 1216 374 1273 376 1311 384 940 393 1445 383 1112 388 971 392 1539 433 1035 404 1226 399 909 400 1015
9367 0.2410722507420423 -3.1323302476676798 11.947364487684245 225 141 121 1.8456832123601352 126 402 198 545 139 397 131 340 137 321
9363 5.8317906815439091 -5.3688806856431528 8.4430411587062721 221 81 46 1.7123943467301335 208 2032 168 1991 172 1850 205 1999 211 2076 212 2168 213 1928 210 1793 218 1763 165 1844 238 1614 216 2201
30115 -1.0794150920901553 3.8926517369262079 -0.98797525343833648 0 0 0 3.5782178120968471 380 1029 382 1026
9362 -0.3440005368244663 -7.4081360525419946 9.0275414210041163 254 127 65 1.5984486398945059 190 2089 194 2535 200 2069 198 2156 189 2214 214 1824 201 1737
30114 -1.1261526290445427 1.2800734814681831 -5.4823604508053938 191 85 49 1.31765500086237 389 1728 390 1325 392 1880 395 1384 388 1056 433 1184 391 1231
9361 4.827764421648653 1.2805224201114547 6.6555922496521909 206 81 43 1.9605447589595932 190 2087 200 2067 198 2154
19634 5.6199660222488435 0.7069916544477991 -1.2099535607365985 254 109 57 1.4552801361600718 264 2281 270 2224 284 2300 307 2235 281 2181 289 2365 294 2280 293 2235 317 2060 318 1947 308 1744 300 2035 301 2071 303 2007 299 1819 304 1905 310 1711
9360 4.827764421648653 1.2805224201114547 6.6555922496521909 206 81 43 1.9605447589595932 190 2086 200 2066 198 2153
30101 -2.2166865286874278 0.25628670941675652 -2.9151772293147298 254 124 48 1.6931196587064381 390 1062 388 913 394 1076 391 1072
9348 5.7050962370206193 -0.16071488877066029 10.980299625098954 227 109 66 3.2565938308915729 170 974 200 707
30099 0.091273656809477077 3.6114007325756812 -5.3203816354882356 179 57 20 2.2252084283961064 379 1455 370 1292 388 896 451 966 450 616 452 1002
9346 -0.84869201022794827 -3.5484689444950077 6.5089529694163977 254 133 80 1.6072447643045822 189 2301 190 2178 194 2619 200 2072 198 2158 214 1767 206 1898 207 1832 215 1828 202 1820 201 1682 208 2017 205 1913 211 2001 212 2093 216 2135 213 1852 210 1776 209 1798
30089 9.0092943325963653 -0.92560922468480034 1.1296326820370985 155 72 49 1.2942477216809272 344 1012 387 1137 389 1000 390 906 395 749 388 707 341 982 380 649 392 1122 393 970 394 866
9336 -1.2404680385423461 -2.4482702822744011 6.3855625516260952 211 80 38 0.47949496210296211 194 672 200 416 206 150
30088 -2.6078878495833364 1.0547036772661456 -2.3538933720821844 249 112 55 1.2193814793603817 395 695 388 676 391 931 401 570
9335 -1.2389503759782996 -2.3841859848913738 6.2365314667169267 213 85 43 0.78563215318974267 190 479 200 415 189 1018 194 1336 198 490 206 468 202 116
9334 -1.2774978546714535 -2.4044761308090941 6.2792108908859419 213 85 43 0.48459849522297888 189 1017 194 1335 200 414 198 491
9330 5.1395761899574914 0.41279487935320658 16.571010158065359 129 46 19 1.7246648355175438 162 1639 163 1569 149 1441 151 1532 178 1579 148 1514 187 1693 180 1622 159 1560 184 1606 173 1714 160 1309 189 1926 153 1450 168 1674 172 1626 161 1530 194 2229 190 1601 197 2188 200 1715 215 1497 198 1620 208 1332 206 1363 205 1482 211 1336 212 1600 216 1646 213 1017 209 936 218 1323 143 1358 193 1866 204 1158 238 1249 232 1295 214 1679 217 1345 220 1306 221 1089 225 1442 224 951 235 801 248 529 244 525 177 1674
30075 -2.3119273036422761 2.44343512723484 -7.0042805633733733 127 46 25 1.054715478997414 393 1099 390 1293 388 1029 389 1625 394 1191
9322 4.4794670561609893 -5.4849417399814655 5.8671429874203822 246 109 64 1.3328060130983572 189 2364 190 2248 197 2424 200 2137 194 2682 198 2163 214 1831 201 1743
9320 5.6933812866078908 1.9112302210331957 8.0675339459799496 233 108 63 1.7500042173748742 200 2131 214 1823 206 1893 201 1736 207 1767 195 1770 188 1764 187 1851
19593 3.9904725284943479 1.5822603776265802 -0.64279164244769127 221 87 43 1.7865039587874902 251 1730 267 2098 272 2126 277 2146 279 1863 292 2102 282 2217 290 2074 284 1960 307 2025 275 1521
30067 -1.9355979940656811 1.6595046997135254 -1.7190661362359236 206 87 53 1.2357656344372969 389 1770 392 1927 393 1559 395 1422 390 1368 388 1103 394 1243 394 1272 433 1201 391 1298 396 1335 387 2031 397 1196 399 1047 398 1121 400 1160 401 1060
9314 6.581521561650634 -4.8293767553544278 9.626865640773671 221 85 47 1.3707022257536403 168 1950 213 1874 208 1973 212 2113 210 1735 258 1640
9312 5.782172682503699 -4.3815612223438896 6.8530676371361183 213 76 41 0.58077842560209103 194 2638 200 2093 198 2175
9311 5.6795205306026944 -4.6108203698448094 8.2741698184432089 214 77 41 2.0013927209801436 197 2387 200 2092 193 2132 211 1941
19584 4.1406002244395737 1.846368789047808 -0.45346194827657488 211 78 39 0.63091176042561647 279 1448 284 1777
9304 6.2270006306989654 -0.38183500606089049 5.4736094094081302 243 119 79 2.7113064691523943 189 2294 194 2610 200 2065 198 2148 190 2172 214 1818 207 1824 201 1673 206 1945
9299 5.395437679394913 -0.077443150093789145 8.202302938684344 232 87 45 1.4144671741355206 200 2058 198 2141 214 1753 206 1874 207 1752 215 1800 202 1750 201 1668 208 1835 213 1831 210 1609 209 1720 218 1577 221 1284 189 2288 190 2168 193 2106
19572 2.6554186839335912 4.031606390145984 3.1264821587012892 0 0 0 1.903819802573115 262 1433 267 544
30044 3.1722648689736297 3.3883169183230066 -2.9448614683892158 139 48 19 1.8144129665125714 347 1115 355 966 366 1067 367 958 374 1028 375 1036 377 1089 376 1029 398 777
9291 0.92478095383067183 4.303530066740942 24.896444871755126 79 22 11 0.73396897322336796 142 1663 153 1685 158 1508 158 1642
30040 0.34621577445425067 2.4123163550658888 -5.8455907329832959 0 0 0 1.7993808062534045 353 941 382 843 355 1093
9287 6.0620833895331447 -3.6132347731573211 5.4661955592632534 254 135 76 1.1031174018226519 189 2255 190 2129 194 2486 200 2024 205 1854 211 1950 212 2031 216 2078
30039 2.8048831428721019 3.4550111469033737 -4.1560395490734781 241 90 42 1.4468184799139894 355 973 366 1074 369 1162 381 1006 352 791
9286 5.9143629771697155 -4.5700092261624778 8.1335554537993087 241 104 62 1.6319359529176702 194 2562 190 2124 198 2100 214 1784 206 1836 201 1634 208 1884 205 1847 211 1942 212 2023 216 2068 213 1800 210 1662 218 1522 224 1531 189 2248 197 2388 234 1367
30032 -2.0665175714986845 2.3000779483690423 -1.73958381586491 182 59 8 0.90495235973417487 387 1072 390 879
9279 4.8315742971848863 1.4254240105572067 8.6152469417008639 229 113 65 1.6562330274850441 190 2076 200 1991 189 2205 214 1762 206 1792 207 1678 215 1732 202 1683 201 1614 208 1839 213 1752 210 1620 209 1655 229 1385 219 1445 231 1399 237 1510
19552 5.1218413634815416 -0.43957365411842575 -1.3399911780285851 214 79 41 2.3109203811826444 272 2189 296 1876 270 2060 278 2123 260 1810 264 2120 262 2003 268 1858 279 2024 275 1864 290 2122 277 2201 282 2272 273 2304 269 2131 269 2132 265 2197 265 2198 280 2257 263 1650 271 1946 251 1930 251 2028 285 2091 292 2145 292 2144 283 2119 295 2045 288 2009 266 1737 294 2100 293 2073 293 2074 317 1908 312 1989 329 1406 349 1445 336 1358 333 1240
9272 5.4216914237691762 -0.5819465471812646 8.767188088335244 228 91 49 1.5198657261343695 189 2190 190 1971 194 2413 200 1972 206 1559
30024 3.4585784260035601 1.0563299457482931 -1.4744701121687904 254 254 220 0.64356127819856346 381 946 389 1324 395 998 390 723 388 541 394 702 433 503
9271 2.3774783651045741 3.3042840086260483 21.785658443121442 0 0 0 1.3273281651259021 121 1674 171 1992 105 1690 110 1732 115 1705
30023 -2.0269902118072221 1.3250926759694184 -1.8718275876324884 170 59 28 2.0867762022143728 392 1526 390 609 388 440 394 809 389 1408
9270 6.1701825268803692 -2.6955193386037797 5.7606575394250124 254 103 58 1.7537559372546081 189 2171 190 2044 194 2498 200 1949 198 2036 214 1671 206 1751 207 1642 202 1648 208 1673 205 1763 211 1705 212 1933 216 1808 213 1716 218 1547
9266 6.0745392322010305 -3.2627871130179988 6.0616445415242772 254 128 73 1.7873902457629915 197 2173 200 1940 212 1754 216 1801
19539 1.3167392590559899 -1.9491117414739618 0.87867420677100061 0 0 0 2.9749232496754239 263 1904 282 2424
30015 3.7682023633187631 1.3095316851208585 -1.2942736043427074 186 91 36 1.3527231224987388 347 395 389 294 395 222 390 239 343 680 388 140 433 235 391 226 397 239
9262 2.880797119156314 -6.1235604811552848 6.2250072864383288 254 126 78 2.2265765379925213 189 2128 190 1999 200 1901 194 2536 198 2070 197 2302 214 1704
30009 -0.20904904899732427 2.4774758519725668 -1.5415883633968006 119 47 25 2.5561622821236116 380 1002 395 1194 381 1205 392 1670 389 1535
9256 3.8780198895741438 -0.27111968937987974 8.8183925776178977 0 0 0 1.5459681198526296 169 1808 171 1894 174 1718
19529 5.8166232072571473 -0.73702763208328803 4.232412816076792 0 0 0 1.6146621849003233 249 1630 258 1720 257 1801
30008 2.8695033355270758 2.4865981148910357 -5.736863521756054 180 65 30 1.9131322789975123 382 1050 383 1168 386 1174 393 1403 395 1306
9255 6.5842454215844528 -0.86743135256409287 10.377021022934146 220 87 46 2.2235286295760575 189 2186 190 1966 184 1599 198 1955 200 1863 189 1940 195 1670 217 1354
30006 0.020841736736537848 3.6728228350257388 -5.1828021131775985 219 77 34 2.0894930445560091 372 1066 375 795 387 1628 392 1548 395 941 360 1616 372 1559 368 1666 373 1699 371 1563 365 1432 364 1604 362 1509 370 1477 366 1228 366 1295 363 1462 376 1407 369 1541 374 1280 375 1305 377 1374 377 1375 376 1320 355 1225 355 1311 378 1173 378 1174 386 1137 381 1221 384 1133 383 1117 380 1019 382 949 389 1632 389 1633 390 858 394 1129 394 1130 424 969 407 1000 452 841 443 920
9253 -1.3414594960277875 1.8729678393171711 8.8580556123652077 236 114 75 1.5615097500110857 190 2051 200 1850 198 2040 214 1584 215 1491 202 1445 210 1359 209 1525 211 1712 205 1477 213 1500 208 1532 212 1592 238 1365 216 1637 220 1171
9249 5.9083511375920237 -3.3325374500159026 5.2596743068287646 238 94 42 0.65342837927950126 189 2049 194 2381 200 1838 198 1927
19522 4.5391371550362027 0.076767838698616156 -0.30080441318596185 254 254 230 1.6600572856053888 251 1805 288 1910
9246 3.1348444097965329 -5.1058559744203773 5.6704048660259012 253 111 69 1.3467580218529651 194 2457 200 1795
9245 1.9945512978908222 -5.0701040385243656 5.6887985723290688 254 147 87 1.9197859760585061 189 2122 190 1995 200 1793 198 1883 214 1549
29983 1.9405755644008338 3.1536686502666296 -4.9745587199688233 176 69 36 0.5451576389175109 368 1049 395 878 360 1042
9230 2.2957785931616197 -6.1389452577495591 14.565016148833173 254 254 218 1.6966485904606672 190 1745 200 1648 198 1742 214 1415 206 1622 207 1545 202 1533 201 1370 210 1115 209 1411 215 1443 181 1558 244 809 240 747 241 777 246 704 245 667 247 708 249 776 243 639 256 879
29978 4.9747761587081953 -0.51794992088582636 -1.394684592047311 135 47 20 1.1376562324727588 354 1073 379 1144 395 747
9225 2.6064952442660787 -5.6881228631668286 6.0224488142282633 254 124 76 1.6858787683753083 189 2000 190 1716 200 1629 198 1886 194 2327
19498 1.6933418495017141 1.2752501442886555 0.1839324876900307 142 56 10 0.78836129260899124 265 1512 267 1528 290 1767 284 1507
9223 4.9694835752302513 0.22402650527581544 7.2223141983142334 254 129 77 1.0627958729092704 194 2283 200 1591 189 1977 198 1857
19496 5.1223581090377008 1.5286189663871683 7.089252708137729 254 254 230 1.4938471883601911 252 961 267 1302 284 1263 307 1156
29975 -2.1336234903903657 2.1251695037376641 -1.6865733007140895 175 58 6 1.0701045574002543 393 390 395 408 390 647 388 472 391 402 396 776 398 372
9222 6.2456820968399818 -0.74022933595344742 4.6812461132002952 254 254 225 1.2514060279092041 190 1680 200 1587 198 1683 214 1520
19495 5.0598881431298111 -0.37468292788734137 -0.50072897862485743 254 254 210 1.2023297889604219 267 1292 284 1246 289 1273 318 1023
29974 -2.1082873918535285 2.1723021843695252 -1.6271821173885688 209 93 46 1.5625904457518576 383 108 395 406 391 401
9221 5.6692590905056894 -0.80299532024648923 4.4253421521464285 210 89 55 0.74753079942020062 190 1677 200 1585 198 1325
29969 -1.3982810395744949 1.780061587046212 -5.4094457328859669 163 50 13 1.9943752456630881 383 1095 389 1617 395 1265 391 1193 397 1104 410 1149 402 1276 412 888 413 867
9216 4.5169497191112056 0.7997847149606605 10.349263827580989 225 103 56 1.2213164549131372 194 1677 200 1557 198 1648 214 1324 189 1717 218 933
19489 6.9257591239376906 1.8785095262149165 4.1021686347218758 220 100 58 1.0149256716092292 252 231 267 864 284 822 307 772
29966 5.0980891579886505 2.0350748181701017 -0.70131029732875361 169 58 17 0.9646770282745365 345 957 387 1511 392 1457 393 1007 389 1090 388 745 433 914 391 999 396 1045 397 1031
9213 5.2631999362019171 -1.3463500081796682 7.4357426691468804 254 254 215 0.63896844768651762 194 1989 200 1525 189 1934 198 1629
19486 4.7425911853135529 1.5928887183625748 6.7389286309203147 138 65 42 0.79981706535966668 247 789 267 795
29962 3.9164862822465549 1.1692371101643364 -3.9400117509470918 186 72 34 2.3721798508839362 370 1012 376 999 364 1340 365 1189 375 1122 371 1096 374 1112 377 1186 355 1052
9209 6.5448212762629252 -2.5131031854830601 5.3596005852488222 254 128 79 1.7899591697929327 189 1659 194 1577 200 1495 190 1573 198 1184 220 1170 204 1153 238 1244
9206 7.225535469331632 -6.6709219973867411 17.1448148058806 203 87 55 0.57799223136882638 138 824 200 1441
19479 4.7544784984779564 1.640509232862563 6.6371515221618305 189 122 98 0.66473138924180297 247 515 267 340
9201 5.6793238834858775 -0.81355289751479953 3.7223014992343684 254 209 175 0.32723040651334928 190 1332 200 1270 198 1331
19474 6.1765149334028759 -0.11668238204211501 3.0701281775453468 247 125 78 1.2850421248393267 264 2202 293 2150
29953 2.2468885147516318 2.2556477963281143 -6.6973813229236425 204 64 22 0.72327797295453355 382 1052 389 1722
9200 5.6793238834858775 -0.81355289751479953 3.7223014992343684 254 209 175 0.32723040651334928 190 1331 200 1269 198 1330
29950 -1.6876153456922998 2.2612146291684483 -1.7346536941194104 177 56 18 1.7737507458298027 393 1457 389 1696 387 1782 390 1233 433 1114 391 1254 396 1287 388 973 399 963 401 929 410 1220 402 1321
9197 4.8945277269375467 -0.043705205394079016 8.1977048312501708 210 89 43 0.97097081234306748 194 2034 200 1204 189 1723 198 1653 214 1502
19470 2.8694246384330722 -1.1896456075887036 -1.5432126552318841 254 141 77 0.89789118733989337 265 1852 277 1881 282 1916 283 1741 285 1792 272 1866
9195 5.6790388173940975 -1.2683558622168987 4.7551379258398097 254 254 215 0.22497470442141876 190 1263 200 1190 198 1261
9193 4.7139742950068877 -1.3175203223594771 8.1956438715158999 0 0 0 2.1830360127089361 171 1215 176 412
9192 5.6456060128846461 -0.92623975854535601 10.869036373670413 170 67 5 1.9217740154576153 189 1284 194 1986 200 1153 198 1624 214 977 206 1046 207 1297 215 988 202 1270 201 935 208 1338 205 954 211 1340 212 1353 216 1048 213 1334 235 797 259 895 245 722 190 1604 229 532
9188 5.9539383860790691 -3.697209455410285 4.6751534050833365 246 111 70 1.4396452968744431 189 1606 204 1120 217 1002
9187 -8.8298029227312185 -0.2199254711508779 20.781900525657981 156 74 35 1.4920948152716749 138 1231 200 1007 198 1517 214 1219
19460 5.5749827704109602 1.2029779066172168 -1.0063066278363189 244 108 51 1.0331068077393648 270 857 277 1447 269 1317 272 1742 278 1403 282 1771 295 1307 285 1328 284 1398 307 1636 281 1250 289 1793 294 1317 317 1485 312 1578 276 1504 300 1457 302 1439
9182 5.3591902523317145 -0.56047237190564425 5.3214656749241795 250 118 70 1.3574124405693369 194 1175 200 805 198 874
9181 4.5348946762357354 0.85977331736937512 10.223116636843168 254 231 182 0.34125513380777445 189 1355 190 1286 194 1116 200 756 198 1278
29928 1.1222500114358807 2.9682212059225161 -5.9594189621023803 193 60 23 0.65052664669827842 378 678 389 1172 433 839 391 884
9175 -0.91805321277798668 0.89567406789815618 5.8829640707475965 179 68 41 2.6538522026619318 138 591 200 642
19448 1.3574168478809803 -1.071286542717315 0.20431230481570536 89 27 15 1.4777490864899796 265 2347 272 2322
29926 4.0671261552745168 1.9428016104631227 -3.8013731326377949 215 83 36 1.5717271011532488 354 977 392 1216 389 1093 361 969 395 1029 390 767 388 752 394 910 433 790 391 820 396 628 398 749 399 677
9173 5.4653480106543206 -0.61675507110586947 4.4881554797326411 254 158 113 1.2754489420484589 190 94 200 343 189 370 198 410
29924 5.4371644785456823 1.3467696228638677 -0.896984418740159 147 74 35 1.0840422653472732 346 866 389 1047 395 785 390 727 388 722 394 883 433 757 391 986 396 1024 397 779
9171 2.8378849051550255 1.6546962851490847 20.858472214000511 121 51 32 1.3580301704446278 137 196 194 1593 200 255 190 714
19444 5.2100027695645048 -0.34904002966792802 0.99144731088333571 254 107 65 0.21762230736936092 272 2281 300 1879
9133 3.7343583535502156 0.59510339179381289 16.034572404225141 0 0 0 1.6550391699291289 123 1647 125 1732 190 2218 161 2068 129 1609
19406 4.0607715018371637 1.1390192680247029 1.0607442570412691 254 254 216 0.87132558705595398 271 1189 251 1482 273 1823 285 1651 292 1685 269 1619 277 1733 280 1763 282 1747 283 1603
29879 3.230294212995235 2.0680876800943202 -5.7292509702284278 234 90 49 0.45025286154727578 392 1726 382 909 395 1247
9126 5.533711796572927 0.87376859306883625 9.6092934978024882 197 80 44 1.9287757889614032 184 1747 207 1671 202 1587 202 1676 206 1784 215 1634 201 1609 213 1748 209 1647 235 1333
29878 3.6917811387709114 1.9569405049040904 -3.9553194484180887 251 101 42 1.4720165154246552 368 1240 382 906 360 754 362 1201 379 1183 392 1228
9125 3.0500150664109622 3.558740645081564 13.272683690379374 154 62 31 0.86903942065755257 149 1668 194 2607 189 2291
19398 1.0894132370637317 -0.93089371731087656 -0.27215507519123805 0 0 0 1.5155902650088628 251 1375 292 1213
9122 3.1900788253406422 1.9591904526949313 11.372793123181006 133 48 27 1.8900669144637086 180 1759 189 2348 190 2230 191 1839 200 2119 198 2198 201 1667 209 1718 202 1749 206 1873 207 1818 213 1829 215 1797 208 1922 210 1690 218 1672 211 1983 205 1889 212 2068 216 2111 214 1812 235 1409 203 1431 229 1440 233 1410
19395 5.0318946152671069 0.25566373809609005 1.3812349375180148 221 110 67 1.5378605838274289 275 1064 272 1308 267 1312 292 1294 277 788 282 747 283 696 284 1274
9114 5.9545251155491359 -4.3870245339717249 7.7634508058190121 199 71 40 2.0099000619310474 189 2250 190 2126 194 2564 197 2325 200 2021 198 2102 214 1722 206 1838 207 1636 201 1636 208 1792 205 1748 211 1833 212 1907 216 1954 213 1801 224 1532 237 1426 253 1693
29865 -0.45830227459792555 3.6949231312755213 -4.9572168542279442 248 104 54 1.5517463193429408 392 1560 382 795 381 1061
9112 -0.70225768484563811 -5.2316151276700831 11.602088808297941 147 48 17 1.7517222493205948 153 1661 191 1730 200 1801 198 1999 206 1498 215 1577 211 1658 207 1536 158 1621 197 2307
19385 5.2619992760501173 1.5846907148371154 0.19180447776271853 254 144 85 1.2948455507848635 283 860 296 413 272 482
9109 -0.37344611875994066 3.5303637274033641 12.358950598767434 0 0 0 2.4814572199411584 138 1457 167 1839
29859 3.2459979583423442 0.90654322128798182 0.31975125377548341 254 211 178 0.71846578668046357 363 595 382 723
9106 6.0771079792977298 -0.15208940925884595 15.242495511141072 143 52 24 1.6906222696224504 169 2066 173 1858 222 1248 221 1267 226 1345 225 1443 234 1379 228 1521 224 1475
19379 1.9117982266764464 0.7091583590014362 -0.22421039007501911 254 254 231 1.7823514417735462 265 1753 295 1359
29853 -0.7213747934147321 3.8466984694632442 -4.5332215582349766 254 130 77 0.46623513364803959 381 586 382 540
9100 -1.5082969912699082 -3.6214460682613963 9.1241790862862509 130 44 23 2.1453246004491988 147 1630 190 2003 197 2236 202 1526 207 1533 206 1618 213 1464
29846 2.6142376745861178 3.8661490493735582 -2.699079618643899 136 50 21 2.0942212780810627 365 1046 364 1218 392 1313 344 749 343 771 346 784 387 1343 373 1328 354 1170
9093 6.151202707445373 -2.2943346725490446 13.996857867977615 154 52 24 2.1344439134157343 103 1503 189 2170 194 2388 127 1512 197 2177 218 1427 114 1588 228 1514 102 1449 100 1449 101 1397 94 1551
9085 -2.2935243778137551 -4.9915779982009543 16.179648516226941 152 72 48 0.66056706485455141 194 2467 197 2137 201 1487 205 1596 211 1662 212 1717
19358 4.5587431016803102 -2.0000064412514429 2.9140804128885893 124 48 28 1.6141664392139363 260 2074 261 1978 269 2350 277 2410 280 2456 282 2434 283 2167 285 2216 290 2333 292 2330 307 2265 288 2203 295 2238
9082 2.6654533831671174 1.916936133753673 15.697333640713525 170 78 51 1.7580432426990911 112 1383 116 1613 134 1331 135 1455 197 2064 104 1588 108 1548 110 1618 111 1593 115 1587 121 1562 122 1466 124 1563 132 1613 133 1504 136 1574 109 1590 202 1276 206 1549 208 1343 190 1828 211 986 213 1022 212 1018 183 1643 100 1345 94 1455
9080 6.6078719838137321 -0.63440332306519176 12.924992503931401 201 91 48 0.34969146854674471 187 1429 197 2059
29821 -0.66212083406600963 3.9278594680405776 -4.22917738322821 203 69 31 1.4204357251890807 381 785 392 1572 389 1269 395 1116 394 843 442 554 447 869 448 1093
9068 4.5293503393914527 1.535215107760036 11.151857841621336 214 95 50 0.58970455587830806 179 1505 220 830
29819 1.5362305242082872 2.7640713419309866 -5.3807310472153347 203 68 29 1.2923212065479184 360 1239 363 1218 369 1299 392 1498 388 786
9066 3.831700529084642 1.2978237595822748 11.096097584299098 254 254 223 0.98330949195355577 180 1335 208 1370 213 1364 210 1233 209 1303 218 1224 191 1536
29803 -1.6086370163517802 1.8106590716108331 -1.3055955831657746 181 62 27 2.2616074268180508 384 802 392 1332
9050 6.4018927275550954 -0.84595486265340958 15.115028982855257 231 107 64 1.5943925668281127 151 1270 194 1595 197 1485
29790 4.4806477129668298 1.1023194992167411 -0.060612735177029295 134 50 23 1.8237974122497878 321 1502 326 1505 343 1176 380 962 361 1431 383 1135 360 1630 362 1536 379 1472 381 1155 392 1785 391 1211 337 1149 348 846
9037 5.9294631650928027 -0.60917568518453413 11.389131590113012 203 95 54 1.9853929290705452 191 700 197 998 180 1000
