# 3D point list with one line of data per point:
#   POINT3D_ID, X, Y, Z, R, G, B, ERROR, TRACK[] as (IMAGE_ID, POINT2D_IDX)
# Number of points: 324, mean track length: 5.769560557341908
1118 6.9650798259681501 3.6226406148800767 35.236868926673502 254 110 66 1.9375775741517878 205 1942 208 1981 211 2024 212 2119 213 1886 216 2152 209 1767 206 1922 215 1909 207 1801 214 1792
1112 -26.820332848515569 14.246474285066359 20.977559301828919 188 80 53 1.1327455381599456 213 1064 216 1102 209 995 205 997 211 1026 206 1400 212 1396 207 1329
1110 -16.788643549417483 -18.048073085930376 39.693812084509467 154 55 27 1.0213274353503792 208 1958 212 2100 213 1859 216 2139 209 1804
1109 -13.976119709212622 -16.832409172212277 38.65163868498248 157 57 27 1.3069420541721688 205 1728 208 1769 212 1886 213 1686 216 1927 209 1584 211 1660 210 1643 205 1829 208 1869 209 1675 216 2046 215 1661
1108 -15.363055873711058 -17.009614388153146 36.896449164073275 146 48 17 1.5690523118909951 216 1756 209 1501 206 1710
1107 10.064861207802394 13.508729547117598 18.758624349719447 254 254 236 1.0422162238058035 208 2058 210 1819 213 1957 209 1839
1105 16.599011128164303 8.3685925951362652 10.915463481985078 218 100 68 1.3262177656116938 208 2056 209 1831 213 1953 210 1815
1102 8.9339341482036474 -1.9241052609060083 40.482955607313947 249 119 71 0.85612280376492 205 2005 208 2038 210 1799 211 2082 212 2174 213 1934 216 2208 209 1819 215 1906
1100 10.525738905310565 -6.9773724199934888 44.813955027610795 239 107 59 0.97488803515779388 205 2000 208 2034 210 1794 211 2078 212 2170 213 1929 216 2203 209 1816 215 1904
1099 0.16643437255201596 -13.757504309890344 33.530274614084938 211 78 37 1.6195721417898283 205 1927 210 1782 211 2010 212 2004 209 1803 208 1961 208 2023
1098 7.6252138414923083 -9.1446700828083785 21.693364050345913 231 90 48 1.4451820071696009 210 1725 213 1858 209 1802 208 1962 215 1889 206 1953 207 1834
1097 5.3749568356011252 10.854896387813616 17.79077533928989 254 254 238 0.39221404330021836 208 1934 210 1767 213 1906 209 1790
1096 0.94648681370751264 6.5145698370829592 17.491805723785983 249 119 71 1.0119494941064973 217 1579 221 1365 209 1782
1090 9.5719125125916893 -1.3285414177910966 35.42391087833898 233 88 48 1.5078999971352445 205 1850 208 1887 210 1664 211 1946 212 2026 216 2072 209 1760 215 1770 206 1914 214 1788 213 1803
1087 -28.045407270069024 8.3444555225033135 18.445340185888107 188 65 34 0.88738966507579387 205 1769 208 1813 212 2058 209 1707 206 1936 214 1801
542 17.530473093722648 2.1605484273205535 20.621136628528429 254 121 72 1.4071164857253189 205 1861 211 1957 212 2041 216 2086 208 1895 213 1810
541 14.237343638391797 1.6470734221638446 21.391478501421453 254 165 95 1.3522418167593475 205 1756 212 1917 208 1894 213 1808 210 1569 209 1694 215 1690 215 1774 206 1746 206 1845 207 1721 214 1665 211 1844 216 1967
1082 7.7639901718306428 11.346704286167993 14.914220514499972 254 254 213 1.1969407952718583 210 1516 213 1757 209 1660 208 1724
523 -18.715765319918923 -14.27598238079592 25.024024467330928 170 72 40 1.4038486409078803 205 1726 211 1804 212 1878 216 1920 208 1766 213 1681 210 1543 209 1579 215 1656 207 1614
1064 -22.65099643394516 0.38442388763606228 18.841303569993634 234 114 76 1.6534336507228389 205 1621 208 1657 210 1472 213 1607 209 1519 215 1591 206 1743 207 1560
1626 -24.078729034895751 -1.5040505242924087 16.599389949036265 188 69 34 2.0154264760454268 223 1371 222 1303
517 -17.779664479459115 19.205446334807114 56.667018815363512 173 83 54 1.2812640110898426 205 1501 217 1359 220 1314 208 1699 213 1621 210 1490 218 1450 209 1535 206 1669 214 1606 207 1476
1058 4.852441104553824 11.182571195341275 14.800520872508313 254 254 206 0.74867051617715374 213 1428 209 1378
516 -18.214777731002457 19.66570624614884 58.204564776389013 173 83 54 1.187614713436778 217 1358 220 1313 208 1698 214 1605 207 1475
1057 3.1895650203554116 11.11961703718131 15.966481617558413 254 137 76 2.0343847077480426 205 1399 209 1367
515 15.583561384461868 6.0448420896642867 15.34443976031227 254 145 85 1.4480602426670235 212 1794 208 1692 205 1496 216 1834
1056 -23.15454557485436 13.370332525554378 10.864681485968486 135 37 13 1.1091851767076313 205 1528 209 1333
1622 -10.964898756048985 -7.9304820448448421 5.7419543771043671 162 54 27 0.72849905762846157 221 1380 222 1286
513 12.187115400645501 3.8297386637852475 22.852035374576577 254 130 73 2.0625619689044523 205 1763 211 1705 212 1933 216 1808 208 1673 213 1716 206 1751 207 1642 214 1671
1054 -26.677078246349339 11.886808671808618 11.812733069023292 128 30 7 0.80793414383742468 205 990 216 1090 209 1304 211 1022
512 23.499323975825881 3.9295042177337853 14.697941686256012 223 84 49 2.2803385365102899 216 1976 208 1672 218 1429 211 1852
511 18.730544312351643 0.56025026578599535 20.333047791608752 254 146 86 1.080739627148573 205 1463 211 1522 212 1571 208 1661 216 1605
1619 -23.399411596336531 9.7215070272595678 5.0663149977853559 131 51 30 0.15618117597064998 221 1201 222 1263
510 35.96737644538765 -2.7677109738442232 44.061474454501621 254 110 45 2.4469558575727417 217 1178 208 1655
1051 -15.156826867950871 -9.6507174168379564 14.820195661869541 193 74 26 1.7446223281514188 205 1186 208 1493 211 1239 209 1195 215 1193 206 1494 207 1174
1614 -22.835972878015468 -1.1524964118189132 12.330264505617555 152 53 27 1.0953323561446682 221 1339 222 1237
505 4.0000222726069419 -10.223716743492076 18.159177156414422 254 155 96 2.0923633784773141 211 1483 212 1522 216 1555 208 1627 213 1674 210 1451 206 1702 207 1610 221 1156
1046 5.4585663171438252 8.3197321500850361 15.872990883606663 253 157 91 1.5124238120284275 211 59 209 1057
504 -9.4880858874870615 -7.8407308344771929 8.4038936893912801 245 115 78 1.7892707249455375 205 1426 211 1655 208 1625 213 1582 210 1445 209 1497 215 1570 207 1528
503 1.7792507749361246 -11.355612568703938 17.856919960677178 254 167 95 1.4969151863449124 216 1550 208 1624
1044 -30.184857719121137 15.905199946745583 18.578871779476618 186 78 45 1.2754895552264511 210 943 211 1051 209 1008
502 -0.27704985121430797 -11.269727866597643 15.033846085766896 254 219 143 1.4985701567354714 205 1580 212 1512 216 1745 208 1623 213 1451 210 1444
500 -29.841243365490957 17.841637027204314 27.953440414311856 183 80 52 1.9951843085608119 211 1379 212 1400 217 1223 208 1565 205 1326 216 1121 213 1532 218 1345 209 1320 215 1516 206 1678 207 1587 214 1615 220 1035
1041 -23.349636328819425 3.308619072150766 18.980374257727348 217 96 64 1.7199944380074161 205 506 213 980 209 902 211 1312 212 1311 215 953 214 1459
1608 -71.837782688515333 -44.952504297401589 119.61227891993755 130 61 38 1.1561952559971949 216 1937 222 1227
499 17.024058199320347 7.0394296952287956 8.3659157861133906 254 254 232 0.91447219759498632 216 1855 208 1562
1040 2.7191029476906645 9.394912827019704 15.923989959684462 254 162 98 0.67856264471480143 211 1113 209 719 212 285 216 734
498 7.7971314625693786 6.1756465246973455 14.756031646661794 254 169 100 1.1019984144710271 211 1747 212 1638 208 1558 216 1853
1039 -28.057616106056933 0.34856296319361568 26.083451507155583 211 105 78 1.5100176103219236 216 169 209 201 211 195 212 156
496 -27.445771074473456 7.5355062745170374 20.819639217877381 206 95 62 1.4770075079500862 205 1477 216 1637 220 1171 208 1532 211 1712 213 1500 212 1592 210 1359 209 1525 215 1491 214 1584
1601 -21.469895658535421 16.809320281375939 77.818851960834721 178 88 61 0.79998907374742023 207 962 210 875 208 981 216 560 212 544 217 471 218 539 220 481 213 1011 211 544
492 17.911749938744517 1.3233941949052681 11.88765152333144 238 97 58 1.1854103507150509 212 1577 208 1521 211 1524
486 -27.255100105767951 8.6624252222889702 20.733426264678151 198 85 54 1.4931919589232543 216 1388 208 1337 207 1296 214 1588 216 1648 205 1483 211 1716 210 1366
1594 -26.420386894265466 -5.9250340296511439 24.523324364393368 129 49 18 0.92339184275254949 220 964 221 918 222 764
485 12.718227526334367 5.0370107635498309 21.589105826121123 254 128 68 1.6115197661552574 205 940 216 1379 208 1323 206 1033 207 1279
484 30.804711010950275 1.988804271249347 29.800069006021229 254 130 64 1.6032633317454241 220 984 208 1295 218 1167
1592 -34.994930766758245 -32.813688215048295 122.12293524236698 153 80 58 0.4526553270644228 213 1251 221 899 223 894 222 746
483 3.8317370757919784 -11.910496854988395 20.547219252255754 254 140 83 2.1483409527768025 211 1227 212 846 216 1295 208 1234 205 1183
1590 -13.352358751042082 12.480541246385345 5.1023568952655269 187 95 61 1.3564534047528858 223 583 222 689
481 4.1169015194734655 -10.915825381526641 17.588819454176406 254 178 99 1.5732850595911223 211 1221 216 1287 208 1230
1583 -26.109750982115688 21.514076256976324 35.004639326471832 134 43 23 1.9157094976475664 205 1893 206 1880 207 1820 208 1925 209 1787 210 1763 213 1833 215 1806 214 1815 216 2120 211 1990
474 -42.59305570733229 22.119915322164331 70.468093590309365 116 47 28 2.0782875814969235 216 2168 220 1560 205 1956 218 1731 223 1444 209 1779 208 1992 206 1938
472 -60.627184645413323 29.926694820911063 85.833866826759348 115 53 35 1.2509163238103789 211 1976 212 2061 216 2102 217 1571 220 1561 221 1411 205 1883 208 1912 213 1898 210 1679 218 1667 223 1445 215 1866 206 1939 207 1814 214 1805 222 1360
1559 3.7660626349043662 6.0483161581596523 40.222118508483405 222 102 63 1.0791429589117485 206 1929 207 1805 214 1795 208 1901 205 1869
450 -9.594376426222988 -6.3427972355536077 8.4081975298567126 185 63 34 0.57637327251500015 212 2097 205 1918 211 2004
449 -9.2242352661735119 -12.278952632242136 8.2747316478775357 242 93 49 1.8427990917925197 212 2150 205 1906 216 2184 218 1747
1550 1.3590634289258297 13.252068260286045 30.773493514361903 231 88 48 1.2255068677362906 206 1874 207 1752 215 1800 214 1753 219 1437
441 0.65887099187155651 7.6086856526573685 21.277893870688452 207 85 44 1.7810589651826791 221 1280 205 1786 208 1829 213 1741 210 1603 218 1569 209 1715 210 1685
1535 -20.064855129718868 -18.06286640906054 55.350184041952971 149 55 27 0.97094773753911079 209 1504 214 1641 207 1541 210 1458 211 1663 213 1591 215 1579 216 1761 212 1719
426 -16.671289686139357 -23.118745859126584 56.986938078506839 164 63 29 0.90019531561883837 217 1294 220 1266 205 1593 223 1250
1534 1.7305420582359643 14.572229303617561 19.162800512475378 254 254 229 1.2574717584567854 206 1692 214 1627 207 1601
425 -15.350286559401738 -16.093794551557572 22.461788145419519 190 70 29 1.4526578230691185 220 1117 205 1584 208 1483 213 1585 210 1450
1531 -8.1880709023346672 14.139208246334134 35.348117413004715 254 146 89 1.2000854327909398 208 1557 209 1539 210 1387 213 1627 218 1340 214 1612
422 -10.797859047561039 -12.240575819944826 9.3299756784632688 254 140 83 2.7169496402594588 217 1126 205 1573 208 1621 213 1577
419 -3.4982444647195332 -14.966936951911945 62.686319256555677 166 61 31 1.3036861459617211 205 1440 223 1176 217 1305
1527 -37.87512565915867 -16.51548332546869 77.739357529828879 154 72 42 1.8774210368122415 205 1450 206 1507 212 1544 218 1290 214 1569
418 2.0421333419155614 -11.97384743269933 19.031146978992641 254 168 99 2.4499231408637456 212 1222 205 1425 216 1284 213 1454 211 1220 220 1119
959 -25.761241145376914 10.941000916163194 19.602530974991922 179 69 45 1.7083220638216379 212 1624 223 1199
1525 -27.441035360125834 -18.252410906347833 57.272321571370043 168 86 56 0.10199026786879858 208 1245 214 1557
416 2.8736937565699194 2.018730364744393 8.6809660726419864 254 118 70 2.1669924926947322 220 773 205 1275 223 721
1524 -4.9682025909573415 18.936366499132617 23.5344474585741 232 106 67 1.3585342699136236 207 1603 214 1545 206 1694
415 -15.529963096920552 -2.9180621904930799 9.3634473203622175 162 56 27 1.4081023026578141 212 1551 205 1214 210 800
1523 -14.126878250917494 15.462971362640934 30.931624855997118 219 100 60 1.3897767643584187 205 1667 206 1576 207 1589 208 1570 209 1547 210 1399 211 1755 213 1538 215 1632 214 1514 206 1681 212 1822 216 1864
414 -15.886248927097846 -26.100975146707636 55.92683584700233 234 105 66 1.4245424642343656 217 963 220 944 205 1189 208 1240 211 1241 218 1114
949 0.24967211859138194 11.15890592721561 21.997910444586861 222 104 65 1.7475649045568074 212 1653 220 1207 223 996 211 1597 221 989
947 -27.064454268901841 8.5827545233436293 21.488077507830756 142 40 8 1.5710640195371322 205 1277 223 955 211 1335 212 1601 216 1387 208 1334 213 1332 215 1605 209 1526 214 1589
402 -1.5856875443757601 8.3312595327659178 9.1420477398049886 215 92 53 0.75767509523971777 220 1620 221 1468 217 1685 223 1504
393 -13.895584550252417 -24.363776499837947 57.889276293642666 218 107 61 1.3584158927542176 211 2067 220 1587 221 1428 217 1653 212 2102 216 2142 205 1985 208 2024 213 1920 210 1783 218 1753 223 1469 209 1805 222 1368
1500 -10.902855677299783 14.292159901801595 33.602698699900245 254 253 214 0.77821782243870774 206 1396 207 1326 213 1367 215 1331 214 1325 209 1310 210 1236
391 -28.251086480551194 7.0589254605693021 20.505356402747008 199 87 54 1.8908296899315624 211 2030 212 2124 216 2159 217 1620 220 1553 205 1948 208 1986 213 1893 210 1751 218 1728 209 1774 215 1912 206 1976 207 1855 214 1848
1496 -27.542294317953942 2.1479059747945732 23.543066060196722 210 94 59 1.8562811054074688 210 1173 215 1259 214 1258 206 1313
387 8.407433610343185 -10.621863232955326 19.276783144453653 254 147 89 2.0185428752287651 211 2060 216 2188 212 2096 205 1917 208 2019 213 1854 210 1719 206 1950
1494 7.771756842002099 -9.7897687432406961 34.861283918068573 239 92 45 0.93684211083106683 205 815 211 1249 214 1179
385 -11.045269931109482 -14.847818137302573 15.648345319661875 254 134 80 2.3844393982347656 212 2089 220 1525 217 1590 216 2132 218 1696 223 1409 221 1376
1486 5.5454948525826859 8.9805996578909433 31.728381550929068 235 100 37 0.69860750428174023 210 896 214 992 213 1026
377 2.5340506083195562 -0.89803739282376494 36.662072660612921 164 62 32 1.0171176601809451 216 2074 217 1552 218 1644 223 1374
918 -65.972320586676048 30.732930160331705 85.404071386968837 102 43 30 1.1396167305272287 208 1820 210 1591 211 1725 213 1733 216 1829 217 1351 220 1409 218 1560 215 1710 207 1654 222 1174
1483 2.7040161518422039 8.237883290783186 35.152924512461894 250 121 80 0.02796959496871354 206 1042 214 966
374 -37.292545772980795 -5.5621307993958347 37.871732119512103 70 22 13 1.2853419303347622 216 2147 217 1542 212 2020 205 1845 218 1639 223 1266 221 1249
1478 -0.9681424934365781 12.718511525991765 24.061311453731808 219 83 43 1.6855618982590639 218 1590 223 1325 207 1762 221 1296
369 -3.0836751088702723 -13.817254627241471 15.274103942336573 254 156 93 1.408800905553736 211 1911 212 1989 216 2030 220 1447 217 1515 205 1909
910 11.041764695411841 -7.6866845498393657 31.504275704862664 233 92 43 1.4712953291309279 208 1637 211 1667 218 1403 205 1441 212 1535 216 1572 215 1583 206 1732 207 1629 214 1561
1476 -44.242998888010746 -19.870393208175518 60.962799632231402 126 59 37 1.5948037806860116 206 1823 211 1932 215 1760 216 2056 207 1704 205 1836 208 1875 213 1792 212 2011 210 1555 215 1670 214 1778
367 -25.652496999410435 14.721011582316542 19.777292980653932 192 94 65 1.4188116841485525 212 1961 216 2007 205 1892 213 1832 210 1611 218 1581 218 1675 215 1803 209 1722 206 1876 207 1819
908 -41.534343496977094 -0.7081849682933089 36.871647164383752 254 254 242 1.4219781236329923 205 1458 211 1515 212 1744 216 1790 218 1298 208 1288
1475 -4.9794605762995987 19.033662457210799 23.599140824431718 231 107 66 2.1912238535643853 209 1491 207 1602
366 -26.852075392039854 10.125023145382482 18.704736385399279 172 63 36 1.0599123770025374 212 1795 216 1835 211 1729 208 1690 213 1616 210 1489 209 1534 215 1711 206 1764 207 1655 214 1683
907 -41.534343496977471 -0.70818496829331812 36.871647164384072 254 254 242 1.4219781236329911 205 1457 211 1514 212 1743 216 1789 218 1297 208 1287
365 -41.80007031070302 25.355671894161972 80.70481297886792 85 28 14 1.5840448665768212 211 1724 220 1407 221 1359 217 1472 212 1609 216 1656 213 1343 223 1296 223 1392 215 1503 206 1550 207 1577 222 1313 208 1344
1471 -1.2159594911566416 10.939811658544761 42.138304968755342 231 124 82 1.6316730850368424 209 943 213 1338 215 994 207 973 206 1052 214 984
362 -27.154826841319547 3.0369803256359047 21.110315446729658 210 100 65 2.0047360677173507 217 1457 220 1291 208 1802 210 1572 213 1713 223 1186 209 1605 215 1776 207 1722 214 1733 206 1846 205 1758
358 0.19542324004633282 -12.526780389539596 15.464320215248788 254 178 107 0.91108627279522281 211 1913 212 1991 216 2031 217 1407 205 1820 208 1749 213 1668
1466 6.3456697412954348 9.9986306759256127 22.47769286440888 254 177 99 0.2445988271077506 206 1943 215 1871 207 1864
357 0.59145914729699267 -12.990739666825865 15.275784044128912 254 193 120 1.2538794099614579 211 1794 212 1870 216 1913 217 1406 205 1711 208 1748 213 1574 210 1439 218 1495 209 1571 220 1246
898 -6.8968462431687394 14.984915594814849 31.689185135295709 254 178 137 1.2546095824030183 212 640 218 604 215 1046 210 957 205 623 211 642 213 1084 208 1067 209 1328 206 1108 207 1350 214 1343
897 0.98920221115970297 8.1260392444996334 19.284380239260798 163 59 30 1.8949082891314986 212 1959 220 1325 216 2006 217 1488 205 1792 218 1578 210 1610 223 1313 221 1285
355 -28.701894327292205 18.242133213450249 29.237950934686008 148 62 38 1.6969625463030511 211 1754 216 1862 220 1329 217 1371 205 1666 210 1497 218 1347 215 1724 206 1782 214 1687
354 1.662873999257831 6.4205981181758522 17.597831001474415 216 83 38 1.4042399990760313 211 1882 212 1955 216 2002 217 1364 205 1788 208 1830 213 1742 210 1604 218 1570
1462 -1.0081098498598506 14.221298459890232 29.297702887352333 243 122 70 1.318762202664038 206 1881 208 1926 210 1696 213 1835 207 1823 214 1816 219 1440
353 -14.69358649944761 15.490139258995189 41.522426412308164 151 71 48 1.668588535034794 211 1572 217 1360 216 1415 205 1505
352 -27.492383853554024 10.857716425403119 20.549506685718871 203 93 62 1.4139103047450423 211 1875 217 1357 216 1838 205 1651 208 1694 213 1618 218 1449 209 1626 206 1767
1460 -8.3328460624561949 12.317115525720784 34.014860332037756 252 115 68 1.1320359737980041 217 1577 221 1364 223 1397 207 1817
351 -22.216575743294769 22.047950859167951 69.631983047650948 128 55 28 1.2135461939733392 211 1731 220 1180 221 1189 217 1356 212 1617 216 1663 205 1497 208 1691 213 1518 210 1488 218 1447 223 1094 209 1454 215 1504 206 1666 207 1580 214 1681
350 0.74915655206312948 5.1003602286268492 23.512860777740002 177 75 31 2.0433456240316485 216 1638 217 1343 208 1325 218 1435 209 1615 210 1361
1458 4.3059967643265447 6.8327156227245469 37.622109002820899 213 80 44 1.357669864401458 209 1773 210 1675 213 1816 215 1860 207 1809 215 1784 214 1797 208 1904 219 1356
349 -29.875600342633657 5.0338825076411364 24.514417688238517 151 46 18 1.4511873031523141 212 1927 220 1391 217 1333 208 1897 212 2044 210 1671 218 1541 223 1188 209 1699
1451 2.938945335948957 10.328054929393668 34.327775156749681 254 125 77 1.2957919572849947 206 1866 209 1622 215 1791 207 1740 214 1746
342 -26.721677279701204 -28.198499918941664 53.509727870399971 190 88 60 1.7042394805066585 212 1709 217 1287 211 1802 216 1754 210 1453
883 -6.5409922214003791 18.110276713639337 21.03703774448001 204 95 60 1.675340320793405 205 1976 212 2147 216 2181 218 1742 211 2055
1450 3.0977118829040404 7.8222262615352172 30.080968435473601 253 116 69 1.8285350116789285 209 1619 215 1705 207 1737
341 0.89997332691459897 -16.092544676988094 28.341741803959387 250 126 77 1.1691299150551038 212 1874 216 1918 217 1282 211 1798 205 1719 208 1759 213 1676 210 1638 218 1496 209 1577 210 1539
882 -6.5409922214003791 18.110276713639337 21.03703774448001 204 95 60 1.675340320793405 205 1975 212 2146 216 2180 218 1741 211 2054
340 0.28585371991353481 -12.073473873361861 17.922252054067471 254 167 97 1.7348028398047959 211 1653 212 1701 216 1746 220 1252 217 1277 205 1715 223 1157
881 -6.5718433525662467 10.543437412315416 31.755006410172602 235 110 65 1.2153930837515678 208 1994 212 2133 213 1900 220 1564 218 1733 205 1959 210 1758 211 2039 216 2170 221 1362 209 1780 215 1867 206 1940 207 1816
339 -1.201043523291691 -12.937894678745616 15.149591080715943 254 208 132 1.4759774797481522 212 1505 217 1272 216 1537 211 1469 205 1572 208 1470 213 1448 210 1319
880 -30.779067340015047 10.223546810436341 27.988717900957152 167 64 34 1.0180686395121323 205 2015 211 2090 212 2183 213 1943 216 2216 217 1568 218 1730 208 2049 220 1502 223 1390
1447 -3.9024758527154719 -2.4243914106042324 64.138875928441564 162 61 33 1.7369230517732561 205 1750 206 1841 209 1602 211 1835 212 2027 215 1685 216 2073 207 1719 214 1726 217 1550
338 -23.6970620737854 12.257009191746677 10.938876567455848 125 33 8 1.2299959120984836 216 1444 210 1249
1446 3.8751839364083076 12.947971169810994 20.872372073651391 254 254 229 2.1608604474091613 206 1794 208 1719 207 1681 210 1512 213 1649
337 1.2268933313732833 8.4460714087393178 17.45323926355109 235 110 65 1.2621454870432773 216 1703 217 1231
1445 -27.711095342293472 14.034037743213927 21.109263863495425 207 89 56 1.1918751507592631 208 1707 209 1538 212 1814 213 1531 207 1663 205 1660 211 1577 216 1852
336 1.3647642350173272 7.8064966334185373 18.190544730000454 233 106 64 0.86326419770490948 216 1689 217 1221 205 1520 218 1348
1444 2.4396513908131041 11.348055030522479 30.318765554348914 248 100 47 0.75114782880877462 206 1781 209 1634 215 1720 207 1662 214 1684
335 -27.638219201973747 14.615867498236074 22.588184557497407 133 35 12 2.0875770628030872 212 1817 217 1218 218 1459
1443 2.3647403990561124 11.036634887990758 29.50546560213624 248 100 47 0.76882786781071166 206 1780 209 1633 215 1719 207 1661
334 -29.858877097734222 17.042332603804901 29.63280530378135 152 64 38 1.4624235485364097 212 1639 217 1217 216 1686 209 1462 215 1626
875 9.1794780917517631 -7.7088383926477242 19.513959028350865 254 123 76 0.90896087573564788 217 1602 220 1536 221 1388 223 1355
332 -5.5444398745925785 8.7065667099468733 31.084388542577653 209 92 56 1.3445455359500851 212 1607 217 1204 205 1491 215 1307
1438 -16.176631874314289 -10.288360874481482 17.228734616775899 185 67 35 1.2016207224964253 206 1706 215 1655 207 1613 214 1705
329 9.279642361164079 -9.0786771748379262 32.265026263254278 232 87 47 2.7548601040424616 216 1570 217 1154
870 -20.80805156002566 20.331689237572782 33.437666825308384 185 89 56 1.1668289704652595 205 1895 208 1927 210 1699 211 1992 212 2079 213 1837 216 2122 209 1728 215 1811 206 1882 207 1757 214 1757 218 1682
1435 -19.590720910547869 22.065201456602615 20.166601577662622 170 57 23 1.1033548254798042 206 1802 209 1560 210 1624 213 1763 215 1738 207 1598
326 0.92999735073552692 -11.77343140057123 18.161016228276445 254 149 85 1.2078060824708228 216 1549 220 655 217 1140 211 1477
867 -3.0962851453457638 7.0816653056831145 32.95726573853527 218 102 58 0.64161074685214858 220 1500 218 1664 223 1388
1434 -21.952530496151841 18.432418890749599 19.623052783500633 190 79 47 1.1641278092591152 206 1686 208 1717 209 1556 210 1509 213 1555 215 1638 207 1597 214 1623
325 2.922844433113561 -12.875541575824002 16.667546170502693 254 193 121 2.1169920852323529 216 1743 220 1248 217 1132 211 1651 212 1700 205 1578 208 1475 210 1323 223 1052
1428 -23.793634408822257 -7.6522598479687254 24.419380237925775 158 54 24 1.8364941469953799 216 1318 207 1547 205 1204 211 1258 212 1248 213 1260 208 1255
319 0.06846999543925697 5.9981826910036284 27.478771261586363 172 71 20 1.2756211822457899 211 1326 220 1007 217 1040 212 1595 221 1086 223 950
860 8.0398447464283773 0.8264306639057617 38.759434785605762 229 98 57 1.7028648724018123 205 1855 212 2032 209 1762 208 1975 210 1739 213 1805 215 1849 206 1916 207 1794 214 1789 211 1951 216 2079
1427 -10.028466912968394 -15.814713581829931 41.816553908676795 172 69 34 1.5400396502795104 209 1408 207 1540 205 1191 210 1332
318 -28.553732667914304 -0.30318512355612121 21.621299829910527 207 85 43 1.342978597011379 211 1294 212 1283 216 1343 217 999 205 1239 208 1286 213 1487 210 1163 223 922 209 1249
1425 -13.715540522104105 -16.925510944916248 36.597102194525952 222 99 62 0.56967015636561213 206 1619 209 1500 215 1575 207 1535 214 1551
316 1.1673365421285922 -11.992341463630661 52.287818546131099 198 76 43 1.954020745349321 211 1495 212 1251 216 1574 220 959 217 977 205 1442 213 1471 210 1334 218 1124 221 911 215 1450
857 15.556560993516053 -1.0845986786301107 15.032075666517985 254 143 79 1.8451585633888181 210 1737 211 1944 205 1848 212 2024 216 2070 209 1690 215 1846 206 1839
1424 0.69363370021143833 -10.54283736664212 16.295985480348119 254 150 82 0.60670375055961334 205 1181 206 1491 207 1527 214 1548
315 -5.2609568294144822 -16.302387932736639 26.846861481574749 250 111 57 1.0957750261845458 211 1225 212 1226 217 958 208 1482
856 -28.284326779254712 -1.4013098502644352 20.290831240324806 206 76 40 1.7656395445443138 205 1849 211 1945 212 2025 213 1802 216 2071 218 1641 208 1886 210 1738
1423 4.7787430277557856 15.432245367231198 19.69278154401972 254 254 220 0.4901384272761275 206 1609 215 1551 207 1518
314 -5.228234052272847 -16.234762363839177 26.722490113367808 250 111 57 0.96709994246088771 211 1224 212 1225 216 1292 217 957 208 1481 210 1100
855 6.4883494861662072 -2.3545096337559102 21.42544965234903 213 78 47 1.0009271017344255 212 2021 218 1640 211 1940
1421 -27.139289716301381 10.516052720313267 21.44794910768476 149 43 12 1.1548537985951535 208 1546 210 1377 216 1398 207 1472 205 1495
312 0.66401905843662112 -12.411966650267258 15.977659425899516 254 208 133 1.0339209463262298 216 1544 217 949 205 1423 208 1471
853 -20.071824463994592 -19.527004488699383 35.455009000783619 162 71 39 1.3147638803530697 205 1826 211 1920 212 1999 213 1782 216 2042 208 1868 210 1641 215 1750 206 1817 208 1764 210 1541 207 1693 214 1771
1420 -29.764782991533544 11.085162346278821 28.725883923498824 144 43 15 1.1918667867778472 211 1341 213 1509 216 1390 207 1470 212 1015 214 1598
311 -29.861173640415664 16.784288762794752 30.62467865365306 95 20 4 1.6175235420529652 212 1388 216 1426 217 838 208 1371 218 1222 215 1512
852 -19.017409372553761 -15.069032613512965 22.69447871562949 147 49 23 1.2008623289872287 213 1855 217 1524 220 1456 218 1615 223 1347 222 1223
850 -17.727433176141819 20.151755846738769 16.867234641926679 180 76 44 1.2613023356314372 218 1601 205 1810 212 1857 216 1894
1417 -22.475780069701237 -5.6336840194529669 22.237007794444295 173 67 34 1.3358325513113978 205 845 207 1425 212 415 216 939 211 874
308 0.70519605348180558 -12.034867264386845 55.082096780307197 254 155 121 0.83864892190302087 211 861 212 891 216 921 220 681 217 700 205 838 208 897 213 1262 210 1130 218 792 223 653 209 1220 215 1213 221 913
1416 -11.623049793230351 -16.678427670426544 39.449117932012825 225 100 61 1.557641025975957 213 1467 207 1411 216 890
307 0.71171803434557812 -11.625446451716945 53.298889707923777 254 155 121 0.47658297144030021 212 890 217 699 220 680 218 791
1415 4.1639004225784664 14.756552309097174 18.025932381614702 254 254 227 1.5684050011972734 215 1425 207 1399 214 1395
306 -21.286138653053065 -12.964672573412418 19.368362139223223 223 117 83 1.8115319181516927 216 887 217 672 212 377 205 390 211 402 208 416
847 -0.96814249343657843 12.718511525991758 24.061311453731793 192 71 34 1.6855618982590639 221 1295 218 1589 223 1324 207 1761
1413 -29.489522674003826 19.426529945852717 31.862668188825584 125 37 17 1.3529201439337029 205 1332 206 1411 211 1384 207 1344
304 -2.7680909844333681 -12.869980645724691 17.122162937334632 254 136 84 1.5677965906221696 216 866 217 659 205 371
1412 -26.188977773831823 13.504828365536186 21.268597372733662 148 41 10 1.6615253734530597 206 1393 210 1231 207 1321
303 1.7797961505084576 4.4794319229417967 17.931330891985297 215 94 61 1.5769991385365825 211 560 212 559 216 580 217 486 208 997 213 631 218 550 223 187
839 -28.267602138832899 1.6721026651864308 23.675481420508234 168 61 27 1.5578088230675287 205 1753 213 1708 216 1963 218 1531 212 1752 208 1797
1402 -20.531237566520481 20.421009351280691 19.818881999375478 171 61 28 0.49716317591457848 208 765 209 1122 213 1173 215 1136 207 1121
293 8.8887661372711655 -7.0399196740991599 7.6835294554319216 254 163 94 0.70745456783493388 211 2000 216 2134 205 1912 208 2016
834 -19.380684720380344 -2.4995080933428437 10.838772573928955 163 60 34 1.3593930753864523 212 922 218 1519
1398 7.172201195106731 8.5474500944009542 30.642980193192201 247 113 69 0.47103245852452491 210 547 207 975
289 3.1012600403305282 1.845053930829581 7.4073470534064736 254 164 98 2.0998615474751383 220 1608 216 2217 217 1671 211 2091
830 -5.3753882406528488 -13.205512182888606 14.142129183925439 254 193 121 1.6225648603478318 212 1867 216 1911 218 1494 205 1710
1371 -8.5277388968625765 17.326924589045845 33.878092545744856 238 122 80 1.6014469432985667 205 1347 208 1577 213 1546 215 1527 216 1701 206 1584 211 1595 207 1591 214 1689
262 -9.5550182326741417 -16.446856975308435 26.997394191557952 241 107 70 1.9918220650603859 211 1480 212 1521 221 890 216 1553 217 1143 205 1429 208 1484 213 1456 220 1120
518 14.770381643131042 6.6098266435510542 14.820599962877123 254 117 62 0.82771124536975837 205 1654 211 1739 212 1804 216 1844 208 1700
1059 4.852441104553824 11.182571195341275 14.800520872508313 254 254 206 0.74867051617715374 213 1429 209 1379
1370 -5.7197101782466708 15.283610423808826 33.051302394141743 207 89 50 0.99235195777194929 205 1523 209 1325 213 1541 215 1522 206 1577 208 1571 211 1585 207 1590
261 1.2372636158831032 8.514046416513688 14.754167353324041 254 137 93 1.4674504542203322 211 1109 212 1139 221 801 216 1190
514 10.623809508061616 4.0069816193438497 17.149026592788275 254 157 91 1.357506089922442 211 1713 208 1676 212 1591 216 1381
1366 6.4917553319053702 5.6862987811995405 35.559041317424963 254 120 66 1.858607703409717 205 2013 208 2043 209 1821 210 1804 213 1939 206 1973 219 1550
257 6.8041778465159046 -6.4232719391804949 32.561265458258482 192 72 37 1.8752784185158937 216 2200 223 1481 217 1661 220 1597
798 0.47763627701463002 8.6941218018648794 36.763649433904241 219 118 49 1.8050477202847306 205 1276 208 1335 210 1365 211 1542 212 1779 213 1504 216 1645 209 1448 215 1299 206 1366 207 1467 214 1478
1606 -23.924096315571241 3.9210331984805769 17.929211325653409 193 88 57 1.8072356789441313 220 1295 223 1283 222 1167 221 1260
497 15.769130216703765 5.8136825715884646 14.799993975561119 251 112 58 0.69733409427373905 205 1494 212 1614 208 1543
240 3.8404605747428668 -11.249626130755377 29.799096792208069 254 122 69 1.3810331192523906 211 2068 221 1431 220 1589 216 2193 212 2156 217 1654 205 1986 208 2025 213 1921 210 1784 218 1755 223 1472
781 -26.262605459852754 7.8921327416243008 20.091704394525113 192 83 55 1.7105310785679602 212 1347 218 1195 208 1328 210 878 209 1275
1604 -13.718147950244569 14.669736462521971 12.298489884251261 183 81 49 1.276343841677557 223 1235 222 1133 224 1302
495 23.530930492492189 4.184939963797599 13.69033911845872 247 108 64 1.5811887759911556 211 1530 208 1530 205 1473 212 1766 216 1812 218 1313
1347 -27.04204810706052 -21.944596429974943 46.600679399906632 169 79 48 1.3232011078897035 209 1751 210 1727 213 1861 215 1834 206 1905 208 1965 207 1784 214 1774
238 -21.458021500989286 -24.599742050239946 46.71892565393906 187 87 55 1.5501993445709195 211 2064 221 1382 220 1585 212 2155 217 1651 218 1751 223 1414 213 1918 222 1338 216 2192
1602 -22.387550761992763 5.6819207860312515 11.325623482180339 173 76 44 0.37161812520922999 221 1091 222 1002
493 15.944671079514661 2.3570082127489576 16.530513356678554 254 137 68 1.0335482895340242 205 1628 211 1526 212 1580 216 1619 208 1525 213 1491 206 1527
1345 -11.18971543610683 -11.950886369560738 16.063952950094691 244 118 70 0.85800977825883418 215 1827 206 1897 214 1766
236 -7.1390441101130344 -16.485872736858781 26.827860851017149 254 148 85 1.4521718764563349 211 2058 220 1582 216 2186 212 2152 217 1648 205 1980 208 2018 213 1914 210 1777 218 1749 223 1465 209 1799
777 -29.849705992629158 1.7469429237696974 23.153557139114771 254 254 212 0.93663555879302329 211 1302 212 1296 216 1355 218 1163 205 1247
1600 -18.669350046334785 8.65062176863111 7.9906942840782627 177 76 49 0.37048407209010825 221 784 222 854
491 15.243392691155124 1.2306890667913513 21.772326087956504 254 114 59 1.2478874768481405 211 1523 212 1573 216 1607 208 1520
1343 -6.2714837140053339 15.831218480967925 23.986993180433522 183 72 46 1.7277286313595357 208 1841 206 1892
234 -34.922386003467096 22.494918016762828 51.818574967614744 143 62 39 1.1117421880557066 211 2041 212 2135 220 1567 216 2172 217 1629 208 1995 213 1948 210 1759 209 1781 215 1919 206 1986 207 1862 214 1856
775 -39.185443154455818 -0.70063195660067579 33.631411211937504 143 54 30 0.62208667383208915 205 1240 212 942 216 978 218 1157 211 918
1599 -17.724384399798158 7.98819534322352 7.7777464808396406 120 30 6 0.40146369344266614 221 782 222 851
490 -13.067194008793004 -12.078960633102891 17.750321668181257 177 64 29 1.8180237673442281 211 1234 212 1525 216 1557 208 1490 210 1326
1342 5.8121466404415756 11.796586323956335 19.210169880941951 254 254 238 0.091558394161950094 215 1817 206 1889
233 -1.4584194918297559 10.295454910540888 29.734594765422315 168 68 26 2.3340887777942223 212 2134 220 1566 216 2171 211 2040 217 1673 205 2017 208 2051 213 1947 210 1810 218 1782 223 1448 209 1828 215 1918 207 1861 206 1985 219 1555
774 -21.177454723684132 19.996753527276145 22.838526636295356 154 45 17 0.51076865326456999 213 1151 218 1025 210 1026
1597 -27.274171921602154 0.72757371327738651 22.262432708855524 198 93 62 0.15704016732268541 214 902 222 791
488 4.3830429148317247 7.1923085765707357 13.09534547502432 254 254 226 1.6443877925611461 211 1600 208 1419 213 1131 210 1276
1340 -2.3006310748651324 11.202018017667434 36.888674706323023 239 119 70 1.55004017579414 209 1625 210 1681 212 1944 215 1793 218 1565 206 1865 207 1741
231 1.0218812393454872 4.6122682700840354 23.788109271836404 184 75 31 1.0657087503303646 211 2031 212 2126 220 1556 216 2161 217 1623 205 1949 208 2044 213 1940 218 1777
772 -13.790241992059396 15.858502943649587 33.449409972815246 183 77 47 0.9222233649984376 211 1046 218 951 205 1019 210 942 213 683 215 1037 206 712 207 667
1591 -32.664942229088595 -30.791243678992014 114.24700334397927 153 80 58 1.2998816503254826 222 745 210 1118 223 893 209 1213 213 1250 208 1248 215 1206
482 7.4507567907759285 -13.091059201687184 21.225384914021078 254 194 120 0.66738862915412533 211 1226 212 1227 216 1293 208 1232
1023 -15.797305554485309 7.720637133803093 6.5787668037499856 124 35 13 1.9624845534595687 217 1233 223 1214
766 2.8340443817582806 4.0717252544698423 14.658549888680554 222 96 45 0.43485940669853013 221 749 218 899
223 -17.867088286120115 -6.6119052170064512 9.7203181889679406 192 90 55 0.83265477451249215 221 1387 220 1534 223 1418 222 1295
764 3.4118979247716661 3.6382669511357477 14.104522800276401 236 104 60 0.74621746757505536 205 557 211 979 218 891 212 1014
1331 10.686180495660764 -3.3876299155735956 33.707953536634307 240 102 58 1.7903590344123244 205 1847 208 1884 211 1942 212 2023 216 2068 206 1836 214 1784 210 1662 213 1800
222 -17.867088286120115 -6.6119052170064512 9.7203181889679406 192 90 55 0.83265477451249215 221 1386 220 1533 223 1417 222 1294
763 -0.43326552963823767 6.0276792078385704 23.409736867218708 213 108 70 0.74514427516326243 205 959 210 887 218 889 208 592 216 586
478 -15.944538698062917 -3.0983350258097162 9.59058395778864 160 56 24 0.48024412468973554 216 443 208 473 211 439 213 913
221 -10.074922899691943 -21.580434982480803 56.978899924146596 215 106 62 1.5123294631580986 211 2011 221 1429 216 2194 212 2157 217 1600 205 1987 208 2026 213 1922 220 1532 210 1786 218 1754 223 1470 222 1370
220 2.2639324090620221 -12.185730427736264 29.574219895739006 254 118 63 1.9561342718022263 211 2009 221 1384 220 1531 216 2140 212 2101 205 1925 208 1960 213 1857 210 1724 218 1703 223 1416 209 1748 215 1890 206 1954 207 1835 214 1829
761 6.5217463827069908 -9.4608910297750519 34.424873570415023 241 108 67 1.262955941694559 216 1309 218 771 211 1251 212 869 206 1259
1321 -15.954671062500738 20.017507840868436 36.711826921270486 226 106 70 1.3121977239863054 215 1727 218 1470 206 1785 207 1672
212 -16.055832290621858 17.13146012486936 38.150138149374918 123 41 21 1.6241651687636915 212 2068 221 1366 220 1512 216 2111 211 1983 217 1580 205 1889 208 1922 213 1829 210 1690 218 1672 223 1400 206 1873 209 1718 215 1797 207 1818 219 1438
753 22.471704249920158 -1.6863129143175832 21.234914324822608 254 132 75 1.6556013062506183 213 1876 208 1885 223 1372
1320 6.1427052995661713 8.1435343917381253 26.134012612792279 254 122 66 2.3991462657960336 212 1618 206 1769 214 1680
211 2.4752279454570072 3.2745301573354078 18.052020599228776 189 71 40 1.395831170999922 211 1855 220 1497 217 1563 205 1764 218 1660 223 1383
1313 -19.935352177697787 -17.96613106153594 55.084580085932274 139 54 24 0.94641187187875764 209 1505 210 1459 213 1592 215 1580 216 1762 206 1724 207 1542 214 1642
204 22.794022424273351 -9.3177048259548574 29.689256200481811 246 94 57 1.1898682667224345 211 2072 220 1469 212 2162 217 1536 205 1994
201 10.618586420882748 -9.5756768008679369 26.305916672667983 218 79 37 1.7170828858534821 211 2013 220 1463 221 1327 216 2144 212 2105 205 1928 208 1966 213 1924 218 1627 223 1356
1308 -11.243662575344963 -12.087359421162697 15.025960284959858 216 78 32 0.64655322015101069 210 1446 206 1699 207 1529 214 1632
199 7.7748075296947672 -9.1257500196637054 20.066007087165165 254 129 80 2.2903757616138636 211 1923 220 1460 221 1236 212 2002 205 1828 208 1956 210 1642 223 1351 209 1747 215 1831 206 1902 213 1783 207 1776 216 2044 222 1226
198 6.5736149789863871 -9.4257407193081502 18.918756325474074 254 130 78 1.6396142994497394 211 2005 220 1458 221 1323 216 2137 212 1997 217 1527 205 1919 208 1953 223 1349
739 0.99464259175414949 8.1616038765967076 19.370048458182428 223 81 42 1.8982196011707904 212 1958 211 1884 220 1324 216 2005 217 1487 205 1791 210 1609 208 1835 213 1831 218 1577 223 1312 209 1720 221 1284
1306 -5.3973663770300897 13.214874114577793 31.661762590886347 227 105 57 1.8519544305263687 209 1467 210 1394 216 1858 206 1677 207 1586
197 -26.755483595179161 -25.9219097516788 46.461830841351883 166 76 47 1.1731798057688612 211 1919 220 1457 216 2041 212 1998 217 1525 205 1825 218 1616
738 10.319383810147103 10.242732788784242 12.575768022433595 254 254 238 1.295907693633181 208 2059 213 1958 210 1820 209 1840
1304 -33.419644586603887 15.163363101950655 34.019239277082974 147 67 40 0.98100040852177939 211 1562 212 1619 206 1668
195 -18.362598559543834 -15.164826565930481 20.724573251429934 197 93 64 2.0744724366468912 211 2003 220 1453 216 2136 212 2095 217 1523 205 1915 208 1952 218 1699 221 1318 223 1345 222 1291
1551 1.3632691666328522 13.165816401303514 30.627035040784815 231 88 48 0.52209418885197345 206 1875 207 1753 215 1801 214 1754
442 2.5745527092118015 -10.32227188445415 29.602769940380615 193 68 27 2.4609737697941974 217 1426 205 1832 221 1325 208 1772 213 1788 218 1625 223 1354 209 1678 220 1370
1294 -17.423738975137926 -17.598525827723034 66.576743576157114 142 53 24 2.3531071165235424 209 1415 215 1447 218 1285 206 1626 212 1246 207 1423
185 -0.65211554716614439 10.084228814280017 21.17470377913536 220 107 70 1.711450763117869 211 1991 221 1293 216 2121 212 2076 205 1894 218 1680 223 1318 215 1807 209 1724 220 1422
1290 -26.293722367843422 21.030012481254449 23.481379752458512 160 49 18 1.4987204917340811 205 1369 212 1135 216 1709 206 1599
181 2.656948540952063 2.6401837201522764 17.237674340231891 185 66 34 1.7029313654928222 212 1932 220 1396 205 1762
722 -18.139773807262806 -9.9119587590261808 17.943746050335058 180 66 31 1.3075318856869944 208 1963 210 1726 209 1749 215 1832 213 1860 206 1904 207 1778 214 1772
1289 -27.028603169764928 19.307160953024852 22.149283391460596 201 86 55 1.9469531453704496 216 1457 206 1592
180 2.7032300448843101 2.6809593302510621 17.522793662703123 185 66 34 1.6596405808810044 212 1931 220 1395 211 1851 205 1761
1830 4.9463748464658233 -2.2234894111281647 26.32798522125071 0 0 0 1.7074646031182568 219 1544 221 1444 222 1380
721 5.817829798892717 -11.87761523189992 25.257302185339764 251 115 62 1.3472312462774012 208 1955 211 2006 212 2098 216 2138 210 1723 215 1886 205 1827
1283 7.9872028470760768 6.8057434540156203 28.400191933826775 254 116 70 0.94154549996604076 208 1333 210 1364 213 1503 206 1538
174 2.5303207146469489 -12.390787626348752 54.146344366619815 229 106 63 1.2986332122931101 211 1824 220 1374 216 1945 212 1898 217 1432 205 1741 208 1781 213 1700 210 1559 218 1508 209 1592 206 1824 215 1676 223 1261 221 1241
1533 -16.163656420724912 12.593557714906133 13.278332136958698 171 70 45 1.7445744802366867 217 1244 223 1226 220 1345 222 1126 221 1209
424 -2.03549372070326 -12.542636076640578 16.869365276945949 254 148 87 1.8745363087278502 216 1915 205 1581 217 1276
965 -12.920381846713978 13.754035935325275 11.326736066006864 0 0 0 1.0359975824287755 217 1390 223 1236 222 1134
1276 -26.196549077630241 17.572169320094758 17.296402282550762 166 56 25 0.53203457112202834 210 1271 215 1375 206 1441
167 1.2847466451096377 9.5906132534588888 15.877762004791512 204 75 27 1.6278954531855945 211 1772 221 1205 216 1878 212 1843 205 1681 223 1223
708 -27.639710934158234 5.1780055301525678 21.198568142176413 212 97 63 1.6433075842028497 208 1804 212 1930 210 1573 205 1632 216 1975 218 1544 209 1609 213 1610 215 1596 209 1701
1532 -8.4929365205992369 14.67336624407247 33.462946294587915 251 133 82 1.5054582418762876 207 1339 218 1462 214 1614
423 -6.987779849201206 -10.384508347271243 11.660413091844591 254 133 80 1.0165241351325143 211 1474 212 1510 216 1744 205 1579 208 1754 213 1581 210 1535 209 1574 215 1651
1275 -26.587975151600045 17.792410752992275 21.722985051205651 198 82 49 1.2504333835302279 209 1044 210 977 211 1080 213 1100 215 1361 206 1434 207 1046
1816 6.0191864068692427 8.2632690457849378 7.6951733807966232 224 83 45 1.5855277503041711 224 1681 219 1562
707 -32.826671896294087 -3.6645370970537576 31.217982959211849 190 95 65 1.6500626193663703 205 1747 208 1791 211 1831 212 1906 213 1706 216 1952 210 1564 218 1413 223 1066 217 1314 220 1148 209 1597 215 1684
958 2.293172556213932 4.1360766428006794 15.475295711863048 215 80 40 1.174281861368859 205 1645 223 1193 212 1605
1269 -22.214020295648901 9.0349912602747988 10.103785029221655 140 42 14 0.8720199868065075 210 1227 206 1385 205 982
160 -0.92852614706784353 4.7186173617210061 48.5757784779126 203 85 52 1.6807041081117684 212 1757 211 1700 216 1803 205 1759 208 1668 213 1714 207 1640 215 1693 206 1750 214 1669
1422 -17.253694097048115 19.049891883547083 31.200493146348538 254 254 235 0.66858423609414808 206 1588 208 1416 209 1475 210 1413 211 1400 212 1427 213 1548 215 1532 216 1454 207 1505 205 1354
313 1.8305522726429706 -12.254137268010236 16.952474015226858 254 186 105 0.42833225831375077 211 1216 217 953
56 -18.057328365259846 -26.543354779848904 67.75739239325857 166 60 23 1.6493258684400811 221 1047 211 1661 205 1594 208 1633 218 1393
1706 -21.151779981382187 -1.0079136603638161 16.018652739746329 163 78 51 1.3951213430119171 222 1238 224 1534 221 1342
597 7.1201139257528041 12.164518763975803 15.150255658809783 236 129 72 1.4613942360570602 205 1125 213 1194 210 1305
1414 -24.256493759180792 22.67557925764644 41.13468153604704 131 44 21 1.4110177585625416 205 1339 211 1590 212 1650 213 1390 215 1524 218 970 207 1352
305 2.7602385987817155 -11.477770641710586 16.516237917790921 254 169 95 1.6213116224046022 211 1218 217 664 206 1239
1157 2.2404031347257698 -13.723166671694029 29.844559990628436 254 109 57 1.4746303462429498 205 1725 212 1879 213 1680 216 1921 215 1573 208 1765 211 1803 206 1703
48 3.301595123392961 2.591723800472197 10.023956646968223 232 81 37 0.87063631394507757 212 2184 220 1559 216 2166 211 2092 217 1626 221 1409 218 1780 223 1443
1698 -0.91088845026043652 11.132454876495061 20.653056712918318 0 0 0 1.8092358097340158 211 1890 222 1265
1406 -26.558756053565581 6.658693267484356 21.175378529883719 164 53 21 1.3477737319885725 211 1319 218 1186 207 1282 205 931
297 -0.93637942337001856 -13.033579777661739 15.344449308548318 254 183 104 1.4773320568690806 211 800 217 292 205 787 208 842 212 833 213 855 210 753
838 17.035559074182803 0.012243335749300409 10.500272311108859 231 91 57 1.6815353641248743 211 1839 218 1529 205 1620 216 1960
1149 -21.774552983525236 2.7686581473879253 12.052178521713591 188 76 46 1.349832677147802 205 1467 208 1524 215 1484
40 -0.16453037468912599 7.380799668579594 26.547568801814045 180 73 36 1.6551493606123917 212 2132 221 1412 211 2038 220 1562 216 2169 205 1957 208 1993 213 1899 210 1809 218 1732 223 1446 209 1827 222 1359
1148 -25.548741126989135 2.4611802791429649 21.438265061683385 173 56 28 1.0914479183590702 208 1296 210 1174 215 1480 205 899 211 1306 212 958
39 -0.50542590367734186 6.239055175330142 26.885557170437021 180 79 14 1.3206635389545049 212 2130 221 1407 211 2034 220 1558 216 2165 217 1625 205 1953 208 1990 213 1896 210 1754 223 1441 209 1777 222 1356 219 1552
1139 -24.09099744252164 2.9232854424931438 20.116187532476697 173 57 24 1.0424132863349651 216 1000 215 1265 211 1308 212 963 208 1299 206 1316 207 1246
30 2.4973745433618255 3.1987158243753289 21.80036077155891 212 98 61 2.2247847605782898 212 2047 211 1963 220 1549 216 2091 217 1616 218 1724 223 1434 219 1424 221 1402
526 17.594620872378368 1.3543342131838316 17.217616364787375 254 138 73 0.84689010848620416 205 1755 216 1966 208 1800
1067 0.042371542211290823 10.152168770765913 26.391795829130089 219 89 47 1.5458786661131436 205 1659 211 1576 212 1813 216 1851 209 1540 207 1584
269 2.1460390823964874 3.9903039753829046 16.343047569462932 238 113 70 1.8149142411460204 220 1406 216 1824 217 1468 205 1641 221 1270 208 1816 213 1727 218 1558 223 1294
525 13.970889868237775 1.1853331529659394 22.090973731272332 254 122 58 1.3108904947346036 205 1754 211 1843 212 1915 216 1965 208 1798 213 1709 210 1568 209 1603 215 1689 206 1745 207 1638 214 1663
1066 -19.770651445096068 6.8462317686036096 12.87908336133771 0 0 0 2.0250192238478473 220 1411 221 1191
11 0.54984805070171328 -8.8121966353172745 56.705669048407259 166 58 26 1.2204844885900681 211 1827 220 1379 216 1948 212 1903 217 1438 205 1744 208 1787 213 1702 210 1562 218 1515 209 1687 210 1659 215 1765 206 1832 207 1713 223 1265 214 1718
1504 9.519918196197354 13.50230980869437 20.263810445413718 218 126 78 0.47884896262173238 206 1167 214 1370
395 -41.132997444482037 24.516586140977612 55.698178944408419 84 38 26 2.0508900296135621 212 1805 217 1212 221 1194 211 1740 220 1318 216 2000 208 1702 213 1626 210 1599 205 1784 218 1453 223 1201 209 1630 215 1714 206 1774 207 1658 214 1609 222 1257
936 -17.268081194151275 19.376395436749309 39.880689656163611 176 79 50 0.18392092470308721 212 630 223 488
1247 6.6505878174417949 7.4523767410023121 30.342778820562451 248 105 51 0.81967077177850067 208 588 210 884 213 627 206 1043 207 967 214 968
138 -4.1556873868548694 10.865769490906176 32.044056521531267 209 82 42 1.321775770512406 211 1566 212 1625 220 1183 216 1673 217 1210 205 1502 208 1552 213 1624 210 1491 218 1452 223 1097 215 1618 219 1266 207 1582
679 2.8075071928907378 7.9938069631518358 13.717074327324269 254 168 104 1.9932350975381823 205 1088 208 1121 210 1022 216 1194 212 1140
522 -6.3919147868977744 -10.69124010321516 12.078804212118262 254 147 89 1.0134376721690277 205 1577 211 1648 212 1699 216 1742 208 1752 213 1671 210 1533 209 1573
265 7.9022792914583881 -7.3219152169424904 30.727705943634408 254 129 83 2.1276684389136902 220 1275 216 1769 217 1308
806 -4.6058003774043579 12.895590705634065 25.915071555274896 174 68 36 1.7913160452717038 216 1702 218 1357
